ply
format ascii 1.0
comment created by gply, a Houdini tool.
comment converted from .[b]geo
comment for more information about Houdini, try:
comment www.sidefx.com
element vertex 1217
property float x
property float y
property float z
element face 0
property list uchar int vertex_indices
end_header
0.218186632 -0.187859342 -0.400001317 
-0.376768947 0.133755267 0.321786612 
-0.1835583 -0.355181366 -0.00178914075 
-0.318912506 -0.241165966 -0.177784637 
0.379362106 0.126552463 0.106125645 
0.0367009491 0.161410317 0.400000125 
-0.261216193 -0.275657833 -0.399999768 
-0.130927742 0.377786905 0.356551975 
-0.332090169 -0.222631201 0.395700514 
0.0508379415 0.282715261 -0.399999768 
-0.0658415779 0.39435792 -0.137099132 
0.0958567858 0.388242245 0.372245014 
0.105566196 -0.385663897 0.254833668 
-0.0702959672 -0.128105834 -0.400000006 
0.105559945 0.385665685 -0.0747226253 
0.0774189159 0.392363608 0.00938890036 
0.271484941 0.293645054 0.374984354 
0.0918981284 0.389127105 0.357674688 
-0.088997744 -0.326722205 0.399998724 
-0.206617892 0.342292517 0.0931143984 
-0.207951441 -0.341503859 0.229224771 
-0.365764588 -0.161452368 -0.205138355 
-0.398031056 -0.0375954956 -0.0208223816 
-0.256440371 -0.306908607 0.219536558 
-0.000598010258 -0.376667261 -0.400000423 
-0.279487699 0.16025655 -0.400000662 
-0.303360611 0.260464817 0.0962028503 
-0.263385803 0.22845313 -0.399998993 
-0.360052049 0.173999056 -0.381305784 
0.397342145 0.0448834673 -0.345184177 
0.293830276 -0.271274865 -0.37645331 
-0.102522738 0.234359607 -0.40000096 
0.0976066142 0.332587153 -0.399998873 
-0.377876848 0.130677968 0.334544182 
0.282673627 0.282732695 0.102284692 
-0.392223299 0.078046523 -0.17800799 
0.222024575 -0.291046441 -0.399998993 
0.150944367 0.370311826 0.0911879092 
-0.255057245 -0.133456826 -0.399999946 
0.226579458 -0.329406947 -0.0732652694 
-0.399962306 -0.00119972997 -0.243437961 
-0.188683972 -0.352569699 0.0720589384 
-0.326856047 -0.230332986 -0.178620815 
-0.0728959963 -0.39324066 0.26980105 
-0.226746336 -0.0264267828 -0.40000087 
-0.383549064 -0.112845466 0.202532515 
0.162043825 0.0676833093 -0.399999559 
-0.223898858 0.089972429 -0.400000244 
-0.106464498 -0.385402918 -0.197174892 
-0.107232146 0.385179877 0.19963026 
-0.387078226 0.100698061 0.0874115005 
-0.380023211 0.124716178 -0.160090253 
-0.00133880589 -0.399957925 -0.386584967 
0.399644256 0.0113202855 0.183114439 
0.382937104 0.114951886 0.125566944 
-0.360701054 0.172725305 -0.3363114 
0.0307804178 -0.188725099 -0.399999291 
-0.162165448 0.365456045 0.394775748 
0.395423353 0.0591149367 -0.376255363 
-0.0342147313 -0.398350626 0.2862086 
-0.139421672 0.374728888 0.313700736 
-0.39926666 0.0233356394 -0.332608521 
-0.235595971 -0.323233008 0.064127259 
0.109583929 -0.384496629 -0.183379084 
-0.284818888 -0.280587435 -0.393686146 
-0.333123446 -0.198354244 -0.400000989 
0.392617255 0.0762841329 -0.387681812 
-0.34924376 -0.19486396 0.0353402607 
0.389968157 0.0881355032 -0.086904861 
0.0489551313 0.27009511 0.399998516 
-0.0534539968 -0.396319926 -0.216531754 
-0.261580735 -0.302376777 0.361678928 
-0.276151657 -0.262674183 -0.400000781 
-0.299563885 -0.264771372 -0.085263826 
-0.21390979 -0.170047268 0.400001079 
-0.291829407 0.162291914 -0.40000093 
0.172110528 -0.19704631 -0.399998546 
-0.156808376 -0.367774248 0.058391571 
0.374645174 0.139654234 -0.0723050609 
0.394633323 0.0641029105 -0.355088443 
0.297169507 0.0758977681 -0.399998933 
-0.087457709 -0.159609824 0.400000244 
-0.212728888 -0.338678479 -0.196197465 
-0.144775465 0.265392929 0.399998993 
-0.356069624 -0.181814969 0.230588779 
-0.331662148 -0.223261014 0.0563876629 
-0.395712346 0.0572901443 0.264342606 
-0.15253672 -0.369622767 -0.237950042 
-0.389300376 -0.0911229625 -0.109970525 
0.3255907 0.232194901 0.266972393 
-0.218473181 -0.236572757 -0.399999946 
-0.293121099 -0.272079289 -0.295740932 
-0.399294168 -0.0224598907 0.0275070425 
0.211422041 0.26720202 -0.400000155 
-0.390153259 0.0873074755 0.0512024425 
-0.179002836 0.18834962 0.400001258 
-0.12347775 -0.380460113 0.20606862 
-0.355886728 -0.182173938 0.28875646 
-0.268191218 -0.296548873 0.242857039 
-0.387093931 -0.100643963 -0.0440036766 
0.39193818 0.0793221369 0.0192359928 
0.304594517 -0.259065211 -0.0312278755 
-0.376511604 0.134470075 0.119745351 
-0.203080341 0.322843254 -0.400001228 
-0.258382082 0.305196792 -0.0120719913 
-0.11056532 -0.346543938 0.399999171 
-0.383076519 -0.114471927 0.213151783 
0.396185666 0.0386574306 -0.39999935 
-0.311358213 -0.250904888 0.18558979 
-0.353649795 0.186564162 0.132382303 
0.10936556 -0.0377902612 -0.400000632 
0.376911759 0.133358583 0.0604619496 
-0.385299265 0.106821269 -0.216717049 
-0.395397305 -0.0592791773 -0.0795907527 
-0.13452968 -0.376490146 -0.179735467 
-0.37297982 -0.144279853 0.00659856806 
-0.390411824 -0.0861507505 -0.0448704734 
-0.367295682 -0.157914251 0.273929954 
0.296971351 -0.267712027 -0.0464344509 
-0.226896241 0.329191655 -0.00884885807 
-0.242113397 -0.318177581 0.146615908 
-0.0762170032 0.392632246 0.0637227297 
-0.234944209 0.323722273 0.130926922 
-0.214514345 0.3376064 0.198694512 
-0.399558961 -0.0140345553 0.146670863 
-0.309912741 -0.140306473 -0.399999321 
0.124402069 -0.122482777 -0.40000093 
-0.374070853 -0.141249418 0.318509549 
0.130660221 -0.372599363 -0.400000125 
0.395827234 0.05656486 0.183722526 
0.275294125 -0.206976265 -0.399999499 
-0.391158283 0.0828111991 0.299863815 
0.399364114 0.0202340726 -0.116889052 
0.387842089 0.0976469517 -0.150924072 
-0.237695634 -0.321604341 0.212572783 
0.399940193 0.00190283207 0.166068509 
-0.294390887 -0.270638973 -0.17916365 
-0.168605208 -0.362669319 -0.193827823 
-0.305110872 -0.258479565 0.0180934425 
-0.391852856 0.0797038302 -0.130616948 
-0.0796403065 -0.391867071 -0.141745135 
-0.376439005 0.00385324447 -0.399999619 
-0.319453746 -0.157253981 -0.400000483 
0.186543703 0.353660226 -0.231770381 
0.0572809428 0.395713836 -0.0786874294 
-0.299217165 0.0136810197 -0.400000453 
0.161954805 0.241820365 0.4000009 
-0.372432083 0.145801336 -0.079768084 
0.343256205 -0.204988405 -0.391422361 
0.39352861 0.0710777864 -0.347426564 
0.108103029 0.15424934 -0.399999678 
-0.128324792 -0.378724009 -0.369788647 
0.299603224 -0.264726728 0.0982561335 
-0.386078566 0.0916938111 -0.400000811 
-0.0771218687 -0.380034655 0.399999946 
0.165308714 0.185685426 -0.399998665 
0.0827917382 0.391162634 0.325358182 
-0.231473431 0.0432772078 0.400000691 
-0.367999643 -0.156287476 -0.0728195235 
-0.394003212 0.0680812374 0.237799034 
0.145266473 0.221504062 -0.400000781 
-0.340967357 -0.208858609 -0.0225424767 
-0.365626723 0.161770999 0.143929243 
-0.0322748274 -0.351090014 0.400000781 
-0.177831322 0.0221411157 -0.399999261 
0.399593741 0.0129279131 0.0249780174 
-0.080867134 -0.0498483479 -0.400000572 
-0.383001536 0.11473015 0.187998801 
-0.377879649 0.13067022 -0.339142859 
-0.101090066 0.101153351 -0.400000542 
-0.397264898 0.0457005873 -0.0138391498 
0.0388556235 -0.397911936 -0.112145424 
-0.376206428 0.135317713 -0.0281798374 
-0.245360985 -0.132270604 0.399999589 
-0.364994973 -0.163230911 0.250886112 
-0.399265736 0.0233645663 -0.0862597004 
-0.0300535057 0.398743987 0.152801678 
-0.097450234 0.387886077 0.0113394028 
0.13737686 0.170668364 -0.39999938 
-0.13745217 -0.226821199 -0.399999082 
-0.263642371 -0.300559193 0.34696728 
0.0596702024 -0.153066471 -0.399999619 
0.176710337 -0.358670592 0.085340023 
-0.256817311 -0.306576282 0.0837638155 
-0.399867058 -0.00423029112 0.162925646 
-0.0305833779 -0.398693889 -0.233004913 
-0.323085636 0.235785976 0.108369134 
-0.222198904 0.257297188 -0.399999857 
-0.27455163 -0.290854663 -0.242638588 
-0.119511709 0.325800031 -0.400000185 
-0.175809935 -0.258877605 -0.39999947 
0.368416488 -0.155324221 0.259017438 
0.399853796 0.00465257699 0.0797502548 
-0.333253145 0.220919982 -0.296285063 
0.0340187214 -0.398369163 0.0485590696 
-0.205903307 0.253058046 -0.399998993 
0.343808115 -0.108462565 -0.39999941 
-0.13519308 -0.37625131 0.0252424013 
0.133236453 -0.376955718 -0.0130148893 
0.00508335372 0.399840266 0.078874521 
0.382606566 -0.116089627 -0.296419472 
-0.290666372 -0.274739951 -0.35559082 
0.198754147 0.34694314 -0.131803557 
0.29090932 0.274496973 0.324945629 
0.105837755 -0.358070642 -0.399999797 
0.194461808 0.349481612 0.225383714 
0.252031565 0.141564667 -0.400000781 
0.135420054 -0.205653027 -0.400000244 
-0.242376164 -0.317973763 -0.112036042 
-0.391398102 0.0817383006 0.27298218 
-0.254908681 -0.233285427 -0.39999935 
-0.163042217 0.365076631 0.212335348 
0.127806515 0.378910631 -0.114399768 
0.0881120116 -0.389973402 0.0546509735 
0.309626281 -0.235540211 -0.400000513 
-0.241886318 0.318353742 -0.318186343 
0.0911877677 0.184499159 -0.400001049 
0.213527694 -0.154898465 -0.400000185 
-0.194307074 -0.0608956143 0.399998903 
-0.00341322436 -0.0941176042 -0.399999678 
0.0309215002 -0.398661941 -0.0845472366 
0.222400516 0.329733163 -0.400000066 
0.0516270809 -0.396609306 -0.202011347 
-0.0825340748 -0.0807787329 -0.399999797 
-0.0808187872 -0.32051754 -0.400001228 
0.192339376 0.05741065 -0.399999619 
-0.144959256 0.372735232 -0.208615497 
-0.189560443 -0.10395582 -0.40000084 
-0.310638309 -0.239350349 -0.399998754 
-0.397521287 0.0429882631 0.170998812 
-0.0824550465 0.315175533 -0.400001109 
-0.384546697 0.109411642 -0.338759631 
0.393888801 0.0688035861 0.0800261497 
0.0911065564 0.389304042 -0.0737186894 
-0.0790193528 -0.392005861 -0.335396141 
-0.390223831 0.0869917274 -0.30878529 
-0.21205309 -0.339078158 0.112370707 
-0.0514003783 -0.0833202526 -0.400000185 
0.296299428 0.268474162 -0.277358741 
-0.3216407 0.237648785 -0.270853758 
0.162366301 -0.230780005 -0.400001466 
-0.0326582752 0.39849776 0.296301335 
0.126811117 -0.379268974 -0.205072597 
-0.381027311 -0.121525347 -0.191666275 
-0.234122172 -0.324280918 0.242435172 
-0.387164056 0.100402579 -0.157521054 
-0.397877067 -0.0392245986 0.351648241 
-0.106763564 0.378195196 -0.400001138 
-0.248741597 -0.313036233 -0.269294411 
-0.399723321 0.00880381092 -0.0883809552 
-0.373349398 0.143253416 0.354094386 
0.064162761 -0.394623846 -0.291090697 
-0.392519355 -0.0767221004 -0.301757425 
-0.392114758 0.0785321519 0.359253824 
-0.0694640577 -0.212630078 -0.399998873 
0.388982058 0.0925470516 0.319198549 
-0.228150278 0.268118501 0.400000662 
-0.0377902351 0.251514226 -0.400000513 
-0.374653578 -0.139630854 0.334108353 
0.0156709328 -0.0897446573 0.400000662 
0.248336136 0.313350737 -0.153426647 
0.35083133 -0.192095697 0.153879434 
-0.283082038 -0.282324255 0.0773910061 
0.396555901 0.0519642346 -0.389667094 
-0.0415809229 -0.389428884 -0.399999708 
-0.338633776 -0.212804481 -0.266273171 
-0.0667436048 -0.394215077 -0.299025267 
-0.145485863 0.37254566 0.128786907 
-0.332184136 -0.222492948 -0.355739564 
-0.396082997 0.0549500585 0.186617956 
-0.19429709 0.0205071904 -0.400000423 
0.0362100303 -0.398162037 -0.275115013 
-0.226199403 -0.329665214 -0.35853067 
-0.399152756 0.0257291067 -0.218928531 
-0.182088435 -0.355930299 -0.27522397 
-0.123073705 -0.0166272949 0.399999619 
-0.391932398 -0.079347983 0.00113193993 
0.0306466259 -0.326698571 -0.399999112 
-0.309769779 -0.161766201 0.400000542 
-0.383774072 -0.112070933 -0.170789436 
0.0420755818 -0.0909304693 -0.399999708 
-0.398395956 -0.0337352604 0.320971876 
-0.19193399 -0.0822503641 -0.400000483 
-0.247135058 -0.0244440567 -0.400000095 
-0.0408653468 0.397721946 0.201580033 
-0.0108061917 0.201963529 -0.399999827 
-0.39299956 -0.0744180456 0.123762779 
-0.365316153 -0.162488669 -0.0896566436 
-0.107199043 -0.385189503 -0.0106860641 
0.360224903 -0.173659757 -0.201656684 
-0.372134387 0.146628261 0.246045992 
-0.364677906 -0.163963571 0.232042834 
-0.319016427 -0.027099086 -0.400000334 
-0.302979052 -0.260897636 0.234431028 
0.273429006 -0.291931123 0.0377946869 
-0.0139251966 0.108176246 -0.400000274 
-0.165308595 0.284006268 -0.400000811 
-0.279705673 -0.285700649 0.0649445578 
-0.0812452137 -0.391508341 0.242983922 
-0.399707019 0.00932249241 -0.280336469 
0.0577257276 0.0166528057 -0.399999619 
-0.256134391 -0.0236796737 0.399998963 
0.135061488 -0.370890409 0.399999201 
0.352438688 -0.188941121 0.12109933 
-0.301914722 0.0680440292 -0.400000423 
-0.0194602329 -0.399388433 -0.134725332 
-0.347958416 -0.197037369 0.0666746646 
0.39343369 0.0716769695 0.121434592 
0.367450625 0.157556236 0.0530016683 
-0.215307206 -0.26414445 -0.400001168 
0.39991945 -0.0025629669 -0.309557289 
-0.004320262 -0.399864227 -0.136392877 
-0.396931916 -0.0492232107 -0.0430727974 
-0.387375474 -0.0996749029 -0.279729217 
0.39901492 0.0271873325 0.169818595 
-0.18158628 -0.343296409 -0.400001258 
-0.325005114 -0.23305659 0.371547431 
-0.0807470009 0.149965733 -0.399999201 
0.0966662467 0.214243442 -0.399999291 
-0.305713207 0.175359845 -0.400001049 
-0.0983057916 0.387694836 0.100259639 
-0.341546655 -0.207879096 -0.159574702 
0.0829299092 -0.0711628869 -0.400000662 
-0.0319642201 0.0591472201 -0.400000066 
-0.237246364 -0.32195282 -0.0681784675 
-0.358372986 -0.177294359 -0.228394851 
0.0158085432 -0.399503201 0.140267804 
-0.0573151521 0.395708382 0.00196259026 
0.264551848 -0.259315968 -0.400001436 
0.24027352 -0.319604754 -0.154514313 
0.319212317 -0.147422567 -0.399999142 
-0.399567932 0.0137489894 0.296677887 
-0.373319298 -0.143336922 -0.299940646 
-0.145860791 -0.372410685 -0.103269815 
0.0846109912 0.25058496 -0.399998695 
-0.293869764 -0.271230072 -0.163933426 
-0.103045695 0.38639617 0.154846415 
0.0549557805 0.33779034 -0.39999944 
0.39802745 0.0376336686 -0.233276412 
-0.392430872 -0.0272777956 -0.400001019 
0.356017768 0.181916729 0.352524549 
0.365422934 -0.162241951 -0.0031160831 
0.131707877 0.0745647103 -0.399999768 
-0.117539667 -0.119653873 -0.399999827 
-0.0502473935 -0.396827817 0.133042291 
0.175921082 -0.359072745 -0.0842125416 
-0.387192518 -0.100304715 -0.149870351 
-0.376464367 -0.134601206 0.254194289 
0.399676204 0.0103031406 -0.263787419 
-0.242973238 -0.317510605 0.365417421 
-0.138646871 -0.375007868 -0.362763882 
0.348822922 0.195575625 -0.232814029 
-0.000149187937 -0.399995327 0.336824059 
-0.199024007 -0.196539611 0.400000781 
-0.39993307 0.0021301799 0.0768286735 
-0.209319949 -0.0502248928 0.399999499 
0.0146134887 -0.399540752 0.17098622 
-0.399237871 0.0242517069 0.229050264 
-0.348325789 0.0579217859 -0.399999678 
-0.200821191 0.282779962 -0.400000244 
0.231056035 0.179213658 -0.399999082 
-0.34235841 -0.206506461 -0.207134008 
-0.361196399 -0.171753138 0.0457773469 
-0.396519929 0.0521912463 0.294962764 
0.172175735 -0.360981077 0.269747764 
-0.10955824 0.308202118 -0.399998933 
-0.285740227 -0.279666096 -0.0151890758 
-0.234964862 -0.133524209 -0.399998933 
-0.380523771 0.123258643 0.389735281 
0.3952443 0.0602453388 0.350545734 
-0.389770538 -0.0890196338 -0.214423373 
0.0269254781 0.0793856159 -0.400000364 
-0.399216712 -0.024925109 0.300866365 
-0.381080806 0.12134137 -0.243232444 
-0.394390613 -0.0656352714 -0.146061331 
0.0266659372 0.0902670845 0.400000334 
-0.368560046 0.154992476 0.313588917 
0.392796308 0.0754830912 -0.360975713 
-0.25564304 -0.307611555 -0.171201274 
-0.0399187878 0.110418633 0.399999768 
-0.103373408 -0.386300951 0.122599915 
-0.337004215 0.215400442 -0.259467274 
-0.39822647 -0.035528224 -0.0469814315 
-0.385717273 -0.10538248 -0.183303744 
-0.0358624235 0.156153247 -0.400000304 
-0.394041598 -0.0678388327 0.330899626 
0.260154992 0.248058632 -0.400001317 
-0.397890419 0.0390832722 -0.395490706 
-0.190212637 -0.351790816 0.213651285 
0.31978938 0.240035519 -0.239515215 
-0.310067803 -0.252568513 0.378321737 
-0.203407034 -0.344191402 -0.0666392818 
0.120330967 0.214889392 0.400000095 
-0.193697274 0.00885372143 -0.39999941 
-0.338322252 -0.213331267 -0.146107435 
-0.192079693 -0.1168584 -0.399998814 
-0.399268419 0.0232792106 0.212531924 
-0.395867735 -0.0563091449 0.0519132875 
-0.334792137 -0.218655393 0.0807451755 
-0.394504309 -0.0649174824 0.284116268 
-0.0280766729 -0.194170251 -0.400000364 
0.399552166 0.0142501146 -0.134817168 
-0.348282546 -0.196489304 0.224114642 
0.156459376 0.162805066 -0.400000483 
0.39595601 -0.0557517856 -0.154611394 
-0.264452398 -0.29984507 0.106952883 
-0.365464121 0.155565351 -0.399998575 
-0.363850385 -0.165875897 -0.232855275 
0.171675414 -0.361236006 0.103989296 
-0.399041116 -0.0269101169 0.124434568 
0.39961955 0.0121057881 -0.359983832 
-0.246774152 0.0719673559 -0.399999499 
0.399739712 0.00828268006 -0.206737712 
-0.275207758 -0.230196401 -0.399999112 
-0.199686244 -0.346391886 -0.0105648041 
-0.202389687 -0.0124650029 -0.40000093 
-0.376905799 0.133375198 0.383671671 
0.0452303551 -0.184565529 -0.399999708 
-0.0641386211 -0.372987419 -0.399998814 
-0.39950639 -0.0157068614 -0.0611503609 
-0.345362425 0.201426998 -0.0871597752 
-0.0806794316 -0.275188714 0.400000304 
-0.315920085 -0.245023787 0.245151505 
0.251630157 0.310795665 -0.236530259 
0.0117932791 -0.399629384 0.298458725 
-0.250583798 0.218448609 -0.39999935 
-0.301211566 -0.257570624 0.40000087 
-0.372606456 0.145317003 -0.0147013189 
-0.393743336 -0.0697220638 -0.175400063 
-0.0332926661 -0.165052369 0.399999589 
-0.399214685 -0.0249892678 0.237734616 
-0.132631525 0.377173483 0.380351901 
-0.268043518 -0.29667908 0.0922727808 
0.394828767 0.0628689155 -0.132784799 
-0.112759449 0.227913991 -0.400001258 
-0.33664763 -0.215925083 -0.216171131 
-0.301804006 -0.262230456 0.00451962976 
-0.325776547 -0.231921434 0.156162575 
-0.148830056 -0.121084243 0.399999052 
-0.1988049 -0.346913129 0.221597299 
0.399227619 0.0245773308 0.0951538831 
-0.268525183 -0.296254456 -0.321179956 
-0.153079271 -0.233198211 -0.399998546 
0.0546921082 0.0864377618 0.399999648 
-0.21857205 0.181238443 -0.399998814 
0.257530272 -0.305947751 0.29198271 
0.399502605 0.0158276465 -0.219172999 
0.0116857998 0.396678299 -0.399998933 
-0.00621905969 -0.399804562 -0.211460307 
0.168773577 -0.00279898942 -0.39999941 
0.318356603 0.241882652 -0.0866721198 
-0.398220837 -0.0355878547 0.081214644 
-0.233994186 -0.324367881 -0.165406615 
-0.150568381 -0.370474547 0.124520712 
-0.396877706 -0.0497967377 0.392797202 
-0.14675948 -0.240616232 0.400001287 
-0.399843723 0.00497294543 0.381166041 
-0.392535299 -0.0766508281 -0.126187846 
-0.0830608979 -0.391102493 0.358054221 
-0.393779069 -0.0694963336 0.255583167 
0.317361712 0.243165269 0.157893136 
0.163135007 -0.365036488 0.28073293 
-0.0121077895 0.241634265 -0.399999857 
-0.225255013 -0.21270594 0.399998993 
0.0220607519 0.253416836 -0.400000721 
-0.190837696 -0.351472318 -0.136346966 
-0.0184299257 0.263931185 0.399998963 
-0.035896007 -0.371663392 -0.399999112 
-0.351273894 -0.13121587 0.4000009 
-0.107845895 0.38500157 0.34220618 
-0.34975189 -0.194004774 -0.210600421 
0.293978989 0.271106184 0.24748756 
-0.16258502 0.25535953 -0.400001496 
-0.202514738 -0.0955122635 -0.40000093 
0.265920192 -0.298551053 -0.334549874 
-0.160733163 -0.211316064 -0.399999678 
0.197720423 0.179039687 -0.399998814 
-0.193416968 0.306677312 0.399999231 
-0.036986351 -0.352413386 -0.400001287 
-0.188614324 -0.352605194 -0.327938378 
-0.331396163 0.0565829389 -0.400000334 
-0.118647441 0.381863415 0.115132332 
0.399973512 0.0008427875 -0.353203923 
-0.286270648 -0.279135674 0.0184648987 
-0.0641583055 0.394624531 -0.151443958 
0.39886111 0.0288145803 0.388192803 
0.0494209491 0.39691323 -0.0601662174 
-0.17263402 -0.360747546 -0.0333474167 
-0.12774615 -0.152024597 -0.399999619 
0.0886201784 -0.117040351 -0.400000423 
0.399832428 0.00533208344 -0.146441653 
-0.115834564 0.0677910969 -0.399999559 
0.153188616 0.104249261 -0.400000036 
-0.306826949 0.256533056 0.198391542 
0.305927843 -0.257552862 0.341474712 
-0.356195569 -0.181567803 -0.254609436 
0.398626924 0.0312917568 -0.158898458 
-0.388947785 -0.0684277639 -0.399999827 
-0.13748458 -0.375426322 0.00390181551 
-0.141091809 0.26737994 -0.399998754 
-0.181612149 -0.0929374173 -0.399999052 
0.155375361 -0.368394375 -0.392082363 
-0.034135662 0.208800569 -0.40000084 
-0.232539356 0.325356603 0.0469768308 
-0.0925612226 -0.324972212 -0.400000453 
-0.268483251 -0.157246828 -0.400000185 
0.00358976005 -0.399887204 -0.0427362435 
-0.0625866875 -0.39487347 0.0181821585 
-0.399437994 0.0178834982 -0.358734697 
-0.16631639 0.192539573 -0.40000087 
-0.0767611489 -0.0647442639 -0.400000155 
0.0466265157 -0.109974466 0.399999648 
-0.0532555804 -0.396351367 0.315527856 
0.357747376 0.178522199 0.163715154 
0.330626488 0.0969786495 -0.399999201 
-0.121301688 -0.38109231 -0.257561654 
-0.351752341 -0.190288067 -0.223774478 
0.399259061 0.0235770829 0.294229537 
-0.387546867 -0.0989677981 0.390286595 
-0.353734553 -0.186397791 -0.371688426 
-0.0793471336 -0.391932607 -0.0634390861 
-0.135910124 0.375993133 -0.097689487 
-0.269310772 0.29556188 -0.127531722 
-0.221563071 0.332816094 0.384757698 
-0.339655966 0.211076126 -0.138185695 
-0.21069023 -0.339884132 0.18684426 
-0.295548826 -0.269325554 0.264921844 
-0.394289315 -0.0662749261 0.345376462 
-0.206882551 -0.170648605 -0.400000066 
-0.171271861 -0.0158210322 -0.399999321 
-0.212000981 -0.0847418979 -0.399999976 
-0.399140775 -0.0258558244 -0.359232396 
-0.377909303 -0.0142326681 -0.399999022 
-0.0914105996 -0.389236093 0.199133635 
-0.23339577 -0.324774563 0.325466365 
-0.0458616614 0.397249669 0.287130773 
-0.0611977838 -0.113622196 -0.400000066 
-0.391010493 -0.0834723562 -0.287490219 
-0.123455837 -0.36931625 -0.399999231 
-0.27042225 0.0836275518 -0.399998844 
-0.399891168 -0.00346329901 -0.0582417026 
0.248073399 0.0620380975 -0.399998635 
-0.115812242 0.292555928 -0.39999935 
-0.398186415 -0.035952054 -0.134806201 
0.0674494952 -0.328718901 -0.40000096 
0.18388696 -0.355013907 0.0540597439 
0.27200231 0.172366053 -0.399998963 
-0.399299592 -0.0222870521 0.313555807 
0.194023132 -0.349741071 -0.264668286 
0.399997622 -7.54956855e-05 0.0268262383 
-0.0941854939 -0.277107686 0.399999738 
-0.0769811347 0.0690579414 0.400000334 
-0.303593278 -0.260200918 -0.0616432205 
0.189037398 -0.352389634 0.215940699 
0.0257957652 -0.399146467 -0.257840067 
-0.341654986 0.207695916 0.0895481855 
-0.202908203 -0.344486415 -0.158784971 
-0.0396030545 -0.294430077 0.400000781 
-0.285768509 -0.155153781 -0.400000423 
0.058207836 0.187867716 -0.399999529 
-0.279830545 -0.205816835 -0.399998814 
0.342755377 0.188776925 -0.399999708 
-0.254304409 0.165113077 -0.399998695 
-0.119931489 -0.0519993529 -0.400000006 
0.129165709 -0.0983798951 -0.399999619 
-0.374468803 0.140144169 0.393364787 
-0.237267181 0.321936727 0.209750071 
-0.110113502 -0.38434279 -0.395269603 
0.0748778507 0.392926753 0.380442977 
-0.333052784 -0.135996193 -0.399998635 
-0.222687006 -0.332052231 0.24632138 
0.232466877 0.325405866 -0.276998848 
-0.325139493 -0.0641476214 -0.39999944 
0.0958308652 0.370733768 -0.400000066 
-0.164512008 0.171640754 0.400000453 
0.118388936 -0.381938547 0.268057853 
-0.399384767 -0.0195771586 -0.0995241627 
-0.355896264 0.119936965 -0.399999112 
-0.23365134 -0.324600875 -0.392582864 
-0.396098256 0.0548537299 0.279294163 
-0.228038654 -0.314317256 -0.399998695 
-0.312980741 0.191118807 -0.400001258 
-0.119430184 0.381636024 0.184252724 
-0.0585022531 -0.395520389 -0.324131876 
0.145207688 -0.372645795 -0.276967138 
0.194177896 0.0217245873 -0.399999321 
-0.198306143 0.135510713 -0.400000751 
-0.283156723 -0.28224957 0.103802137 
-0.339629918 -0.113082677 -0.40000096 
-0.395036668 -0.061556194 -0.0425063148 
-0.260294825 -0.19539234 -0.399998695 
0.0316543169 -0.398592681 -0.344126552 
-0.399794906 -0.00652636308 0.178552911 
0.0618512183 0.321041405 -0.399999976 
-0.379258722 -0.126839563 0.120680146 
0.246045887 0.315127254 0.221644685 
-0.0312900357 -0.398627073 0.300058633 
0.315627664 -0.245400742 0.159618855 
-0.360818833 -0.172494143 0.315883636 
0.207047537 -0.342038423 -0.218953609 
-0.258161753 -0.305391014 -0.260411114 
-0.325268596 0.0340692773 -0.399999738 
-0.0875927135 -0.390089512 -0.0764939338 
0.326976001 -0.0984419435 -0.399999827 
0.358481109 0.177082166 0.0746392012 
-0.286034286 -0.197904229 0.400000811 
-0.106053337 0.268500388 -0.399999321 
0.0445217788 0.0512089953 -0.399999857 
0.228821397 0.0343628787 -0.39999935 
0.215710834 -0.196407348 -0.399999201 
0.339948386 0.21058166 -0.271895558 
0.387435496 0.0994659141 -0.0462667011 
0.230287999 0.326886624 0.0573061481 
0.184604734 0.285881341 -0.400000662 
-0.252432555 0.300076425 0.399999231 
0.188074708 -0.35288015 -0.00613560667 
0.115412235 0.382803351 0.248181731 
0.0068125329 -0.362418056 0.400001228 
0.166451037 -0.132571369 -0.400000632 
-0.0249928907 -0.399214566 0.375734508 
-0.0574018881 0.120098732 0.399999261 
-0.282640457 -0.172289178 -0.399998575 
-0.354760826 -0.184383601 0.310317993 
-0.0708836764 0.121860072 -0.400000721 
0.397926241 0.0387043618 -0.0677042529 
0.144783482 0.0701050311 -0.399999112 
-0.38826403 0.0957593322 0.270598143 
-0.278436005 -0.15375638 0.399998605 
-0.387222916 0.10019999 0.158961609 
-0.120664895 0.381277293 0.0867889673 
-0.0397367217 -0.397828639 0.178885862 
0.0307819508 -0.0285011306 -0.400000125 
-0.159960851 0.0672682077 -0.399999261 
-0.240821004 -0.319180071 -0.186351538 
0.25037244 0.311771244 0.209175944 
-0.357911497 -0.164766058 -0.400000781 
0.133890748 0.37672016 0.0731735975 
-0.397413492 -0.0441284738 -0.214219093 
-0.0319722556 0.176987052 -0.400000453 
-0.000372015638 -0.177785292 -0.400000095 
0.0713462979 -0.393486083 0.162157282 
0.0396945029 -0.386582583 -0.400000036 
-0.0808357745 0.391599834 -0.148340374 
-0.201715305 -0.345191896 -0.0974520668 
-0.12459518 -0.380066752 -0.174940392 
-0.361350983 -0.171449721 -0.122002982 
-0.136903971 0.375635326 0.16237317 
0.0518730171 -0.203378767 -0.400000125 
-0.139873922 -0.045068711 -0.400000006 
-0.387184024 -0.100333899 -0.136543229 
-0.129729286 0.10331209 -0.400000125 
-0.177628636 -0.296012789 -0.400000125 
0.397059679 0.0478717983 -0.290932089 
0.0891963542 -0.38973102 -0.00761857023 
-0.383097231 -0.1144007 -0.222370252 
0.38775292 -0.0980459452 0.227477476 
-0.326491117 -0.230869994 0.34712854 
-0.282770365 -0.282635957 -0.219457254 
-0.390201688 -0.0870907754 -0.184256271 
-0.248040155 0.123442747 -0.39999941 
-0.381318659 -0.120522514 0.294163495 
-0.34279424 -0.0727019235 -0.400001198 
-0.106155097 0.385492802 -0.227295265 
-0.315814376 0.245160043 0.187068462 
-0.221054733 -0.0596034862 0.400001019 
0.236541361 0.2425441 -0.399999738 
0.362112463 -0.169892028 -0.0141974455 
-0.268055052 0.171574339 -0.39999935 
0.0535716414 -0.206315219 0.39999947 
-0.393480897 -0.0713789091 0.388029963 
-0.142876014 -0.373485267 -0.172768161 
-0.321985811 -0.237203896 0.211422339 
-0.149622694 0.315714866 -0.399999112 
0.302903295 0.189135939 -0.399998814 
-0.171706706 0.123689979 0.400000423 
0.38460499 0.109210953 -0.115308478 
-0.385346442 0.106658921 -0.0742578059 
-0.396463513 -0.0525475666 0.117421202 
-0.077246584 -0.392402142 -0.285998911 
-0.379000604 -0.127556533 0.267237157 
0.209081203 -0.34083572 0.358886063 
0.137198433 0.375529319 0.376581132 
-0.148732826 -0.323461235 0.399998546 
0.0984541103 -0.095101878 -0.400000364 
0.395512432 -0.0585524663 0.193085656 
-0.279894263 0.28551206 -0.334313214 
-0.0123965004 0.336511254 0.400001287 
0.309061915 0.124427438 -0.399998605 
0.0204675272 0.232735306 -0.399999291 
-0.181236699 -0.35636428 -0.261177272 
0.326652765 0.0397091471 0.399999171 
-0.0544663407 -0.261918932 -0.400000542 
-0.138239503 0.344166636 -0.39999935 
-0.189983964 0.199122488 0.400001377 
0.211855248 0.206178248 -0.400000662 
-0.1222075 -0.380829155 0.278391451 
0.173533544 0.0825627968 -0.399999738 
0.0467679426 -0.397164017 -0.315812588 
-0.205137104 0.343168259 0.382332027 
-0.343271792 -0.204962015 0.0300272703 
-0.215198666 -0.0241408739 0.399999291 
0.362422347 0.169175848 -0.315195382 
-0.11319682 -0.383446991 -0.154664382 
-0.384621561 -0.109153956 -0.0522822402 
-0.397617757 -0.0419676155 0.168928668 
0.0975653902 -0.387860328 -0.103640221 
-0.283097804 -0.0865994841 -0.4000009 
-0.0769967288 -0.362791002 -0.400001049 
-0.277203798 0.288202494 -0.0598866008 
-0.0856813118 -0.390516758 -0.238850787 
0.388389349 0.0951986834 -0.0753042698 
-0.310105979 0.0827574357 -0.400001079 
0.098475866 0.105163135 -0.399999917 
-0.0410673879 -0.397702873 0.213011369 
-0.223742083 0.0552219599 0.399999529 
-0.0479551107 -0.224343941 -0.399999589 
0.0203330498 -0.399361014 -0.0441439152 
0.0962796807 0.00206856849 -0.400000453 
-0.275161922 -0.287136197 0.400000513 
-0.0814745352 -0.101366006 0.400000125 
-0.0589071661 -0.395456254 0.299564034 
0.244958684 -0.148126632 -0.399999559 
-0.115274973 -0.173643008 -0.399999708 
-0.204858303 0.173234254 0.400000602 
0.363117009 0.108739533 -0.399998605 
-0.238386467 0.321068496 0.102813698 
0.00204891758 -0.145400986 -0.400000423 
-0.00323388679 -0.39989838 -0.399313182 
0.277418971 -0.287987322 -0.126879022 
-0.15200232 -0.369854003 -0.28019616 
-0.251071244 0.311229169 0.0973434225 
-0.170629933 0.155560389 -0.400000215 
-0.135385141 0.376182139 -0.139496669 
-0.298315138 -0.266187817 -0.341375679 
-0.0586518124 -0.395496696 0.143963203 
0.190320447 0.237376466 -0.399998784 
0.124490738 0.271820158 -0.39999944 
-0.0506118834 0.287772238 -0.399999529 
0.170339435 -0.350680441 -0.400000036 
-0.107178353 -0.344153255 -0.39999935 
0.204735458 0.343405813 0.205515414 
0.316304862 -0.244527698 0.0336642526 
-0.216075361 0.0368860811 -0.400000006 
0.129951626 -0.378138334 -0.380804271 
0.362206429 -0.105379306 -0.40000084 
0.143199503 -0.335201949 -0.400000215 
-0.247305259 -0.314150363 0.28323859 
-0.063909553 -0.04891425 -0.399999678 
-0.133647829 -0.37680763 -0.292866081 
-0.0784209818 -0.392139614 0.196204305 
0.211052716 -0.339669764 -0.0166337974 
0.123196557 -0.380541801 0.356962949 
-0.0137262419 -0.399568647 -0.066485405 
0.219892412 -0.333951443 -0.253982842 
-0.228193834 0.328309804 -0.265805304 
0.00927333999 -0.320775479 0.400001347 
-0.0842414498 0.20902963 0.39999938 
0.262290359 0.0497503392 -0.400001168 
-0.098464787 0.14784421 0.399999261 
0.000406551728 0.399987221 -0.0179902073 
-0.269498885 0.0208904799 0.400000632 
-0.147778034 0.224738017 -0.400000393 
-0.340471119 -0.209697694 -0.0572784431 
0.0220760554 0.0653274059 -0.400000513 
0.229422942 0.0913642719 -0.399998844 
-0.0490372255 0.331123173 -0.40000093 
-0.362393826 -0.169241771 0.268057317 
0.199285358 -0.346628994 0.187842414 
-0.340748608 -0.209228516 -0.19266586 
-0.162538394 0.0870289132 -0.399999619 
-0.390672058 -0.0849864259 0.354908913 
-0.395607144 -0.0579544231 0.247747347 
-0.255221963 0.0250972956 0.400001407 
-0.299475133 -0.264872044 -0.031863261 
-0.129430398 -0.0128056686 -0.400000244 
0.376872927 0.0452429913 -0.400000393 
0.241914004 -0.228098258 -0.400000334 
-0.249254733 -0.00711352937 -0.4000009 
0.0337323733 -0.285541296 -0.399998873 
-0.362926334 0.168011248 -0.149825677 
0.00941445865 -0.370990366 -0.400000781 
0.378477067 -0.129010767 -0.0144158844 
0.0162494518 -0.379833728 -0.399999022 
0.111338474 -0.306590527 -0.400000155 
-0.0170132238 0.340506881 -0.39999947 
-0.136501729 0.375780135 0.344099909 
-0.20442827 0.343587458 -0.0843213126 
0.225031182 0.330459148 0.264958799 
-0.289189547 0.090329133 -0.400001466 
0.376402557 -0.134772882 -0.196810007 
-0.387352258 -0.0997548774 0.353866488 
-0.0735381097 0.0787245333 -0.39999944 
0.0557978377 -0.395948738 -0.304724902 
-0.224567533 -0.325198978 -0.399999946 
-0.293237031 0.16643855 0.399999082 
0.399856687 0.00456083799 0.112980582 
-0.283393383 0.28201288 0.326278061 
0.287463337 -0.277942955 -0.178032398 
-0.0570884161 -0.395744294 -0.169359207 
0.115458682 -0.0225385744 -0.399999976 
-0.395982951 -0.0555816703 0.14052172 
-0.217890486 0.0989041999 -0.39999935 
0.361629277 -0.16144903 -0.400001407 
-0.368367404 -0.155437633 0.179224059 
-0.376192838 -0.135355413 -0.258382857 
-0.278214097 0.22864534 -0.399999946 
-0.356972665 -0.180042669 -0.132124528 
-0.0866541862 -0.333607882 -0.399999589 
-0.187158749 0.353346825 0.226339251 
-0.237216339 -0.321976125 0.131469533 
-0.141224489 0.374079853 0.0203548428 
-0.193522289 -0.199444324 -0.39999938 
0.0148984808 -0.399531811 -0.0846272036 
-0.254603386 -0.308489352 -0.0150881773 
-0.291754365 -0.273629546 -0.225798801 
0.0786109939 -0.0962355435 0.399999738 
-0.294732422 -0.270251602 0.0114695793 
-0.012981927 -0.399592012 0.335911661 
0.104506269 0.255694389 -0.400000036 
-0.0714991912 0.28501299 0.399999231 
-0.360463798 -0.173190907 0.364069194 
-0.0531627238 0.39636606 -0.112651207 
-0.391554922 -0.0810367018 -0.201941401 
-0.145931944 0.372385055 -0.239986941 
-0.297947079 0.266605228 -0.321930796 
0.245067507 -0.31588614 -0.1183815 
-0.37984556 -0.1252096 -0.249657869 
-0.390307188 0.086618714 -0.00759096164 
-0.388804644 -0.0933408439 -0.251259178 
-0.0922629759 -0.389045566 -0.195755243 
-0.165655658 -0.363945693 0.0908169523 
-0.219110131 -0.334483057 0.393033355 
-0.0303960424 -0.27000469 -0.399998754 
-0.347176969 -0.198358729 -0.0128072267 
-0.35698083 0.104164869 0.399999708 
0.103074923 -0.128259733 -0.400000721 
-0.262324929 0.12015938 -0.399999559 
-0.0135855898 -0.399573058 0.198551327 
-0.231409907 0.158195361 -0.400001049 
-0.397592962 0.0422301404 -0.252990693 
-0.0300057009 0.164725214 -0.400000393 
-0.241682157 -0.115505278 -0.400000721 
0.112838857 0.323367476 -0.399999678 
-0.339428067 0.211461455 -0.0803857818 
-0.0292615052 -0.398818821 0.202681273 
-0.0843268335 -0.39081952 0.296372116 
0.0981865823 -0.352361232 -0.399999082 
-0.277256936 0.106054194 -0.399999231 
0.336584866 0.038592007 -0.399999827 
-0.399475247 -0.0166975576 0.17337732 
-0.393240362 0.0728977248 -0.0896152034 
0.0791947246 -0.16141133 -0.399999231 
-0.254364461 0.043291036 0.400000393 
-0.131589025 -0.237596214 -0.40000084 
-0.19182761 0.350967914 -0.275624096 
0.169754893 0.0352202281 -0.40000096 
-0.104964711 -0.385838658 -0.12329302 
-0.193332672 0.350149363 -0.168438345 
-0.272275507 -0.214144781 -0.400000274 
0.0591962822 -0.0744016841 -0.400000602 
0.312490016 -0.120669492 -0.399998754 
0.324205101 -0.234233782 0.253280967 
-0.217547804 0.335544854 -0.0761801228 
0.11114563 0.16800718 -0.399999589 
-0.0838748664 0.136174157 -0.40000093 
0.305246979 -0.0749316886 -0.400000811 
-0.335422933 -0.217727214 -0.107452773 
-0.226358712 0.0315396562 -0.399999827 
0.290475637 -0.274930656 -0.0625500232 
-0.203907385 -0.343895525 -0.235499054 
-0.209416941 -0.340637147 -0.278442919 
-0.0133259911 0.399581224 0.138503104 
0.19787401 0.317292243 0.399999052 
-0.00625769189 0.338521481 -0.400000662 
-0.161615789 0.0942700729 0.399999142 
-0.0786494389 0.392088532 0.214128658 
0.120768912 -0.273097962 -0.40000087 
0.0601642281 -0.395257145 -0.142257974 
0.202929199 -0.344474018 -0.0209160801 
0.00932332687 0.399707019 0.348709136 
-0.0455042832 -0.38065958 0.399999917 
-0.32231918 -0.236774117 -0.329444975 
-0.263189614 0.257061601 -0.399999887 
0.0541110784 -0.225360557 -0.39999935 
0.120534547 -0.381315172 -0.367548048 
-0.159705073 0.139130995 -0.399998844 
-0.176627696 -0.0568604358 -0.400000274 
-0.159312025 0.0404810086 -0.400000691 
-0.035525769 0.364353478 -0.399999708 
0.220102131 -0.333808929 -0.095904015 
-0.391266793 -0.082325764 0.13208507 
-0.00689900154 0.0804879442 -0.399999797 
-0.388657361 -0.0939997435 0.365468472 
-0.181789935 -0.198582962 -0.400001138 
-0.178157315 0.0684867054 -0.399999648 
-0.395266294 -0.0601063631 -0.36149475 
-0.37443769 -0.140230492 0.267881274 
-0.106400147 -0.37737444 0.399999231 
-0.021647457 0.0454789847 -0.400000453 
0.0136149768 -0.0912981108 -0.399999648 
-0.077762194 -0.00358596165 -0.399999917 
-0.297161937 -0.267495871 -0.280335754 
0.165830612 -0.363869995 0.241026267 
-0.378994644 0.127573147 0.306872338 
0.0390456915 0.397893965 -0.27929607 
0.101825602 -0.221138343 -0.399999738 
-0.133316427 -0.376926929 -0.395975798 
-0.348501951 0.00312250131 0.400000155 
0.0808073506 0.391606212 0.0275048018 
-0.302303433 -0.261663973 0.129157409 
-0.174782589 0.304226071 -0.399999976 
-0.371513158 -0.148168251 -0.0335227028 
-0.253460854 -0.147637591 -0.400000185 
0.0222834013 0.399299711 0.353609055 
-0.389297813 -0.0911345258 0.142853975 
-0.117676005 0.0897239745 -0.399999559 
-0.341414303 0.208102927 0.220127091 
0.20920451 0.340762794 0.121881604 
-0.382650286 0.115939125 -0.318596214 
-0.242112696 0.181538299 0.399999827 
-0.254687577 0.308424085 -0.394454539 
-0.0414817519 -0.365100533 -0.399999231 
-0.352674305 -0.188478649 -0.179427728 
-0.0618563555 -0.183784217 0.400000215 
-0.241571024 -0.31859827 0.026013447 
-0.0190784466 -0.399400443 0.179186583 
-0.395901918 -0.0560933165 -0.152295545 
-0.249294817 -0.157911152 0.399999708 
-0.378651559 0.128526077 -0.352954715 
0.0201002453 0.399368316 0.06696897 
-0.202613667 -0.240022182 0.399999022 
-0.0257410016 -0.399151623 0.271878004 
-0.262386709 -0.01510596 -0.399999768 
-0.343614668 0.0436124951 0.40000093 
-0.239837706 0.319942802 -0.372158259 
-0.328310847 -0.2281923 -0.159620762 
-0.286042064 -0.183817282 0.400000781 
-0.209201679 0.340764493 -0.25265789 
0.046375405 -0.0769459531 -0.399999648 
-0.0914666951 0.164912447 -0.400000244 
-0.123277061 -0.308219165 -0.400001466 
-0.304478794 -0.25919652 0.196166739 
0.151691243 -0.212881505 -0.400001377 
-0.0215170123 -0.222072557 -0.400000483 
0.00194667384 0.399938822 -0.0973813087 
-0.388862312 0.0930828527 -0.195870355 
-0.114357919 0.162509054 0.400000781 
0.268407762 0.29635796 -0.031223774 
-0.339695573 -0.2110091 0.155506924 
-0.209566996 0.077209428 -0.399999499 
0.0681745559 -0.165251359 -0.399999261 
-0.161514625 -0.252901196 -0.399999827 
-0.292920649 -0.272306651 0.113284685 
0.194855154 0.280246973 -0.399999976 
-0.25730595 -0.216097906 -0.399999022 
-0.296901822 -0.267790884 0.331000984 
-0.115168944 -0.382874042 0.263030678 
-0.0707096532 -0.393586934 0.22071971 
-0.189574644 -0.35211587 -0.0408263691 
-0.0645399541 0.394564092 0.238285288 
-0.366395801 -0.154708922 0.400001198 
0.305330008 0.258231014 -0.245344833 
-0.0393469036 0.293106794 -0.400000185 
-0.0338770077 -0.107585557 -0.400000006 
-0.114338793 -0.383115232 0.302471727 
-0.312985301 -0.248807296 0.0418864265 
-0.315293044 -0.245832145 0.216610506 
0.0541700087 -0.396206558 -0.374869198 
-0.29418543 -0.270872056 0.168811783 
0.280446827 0.00892291311 -0.399999112 
0.0726587251 -0.393278211 0.298600852 
-0.0822951943 -0.391273648 0.37319234 
0.0177188702 -0.120011374 -0.39999941 
0.329929978 0.225809842 -0.383776754 
0.347854495 -0.120391361 -0.40000084 
-0.140674248 0.351106316 0.399998546 
-0.0741583258 -0.393040717 -0.251444548 
-0.15227364 -0.161354527 -0.400000602 
-0.326778144 -0.23044762 0.285157114 
0.137446091 0.230272979 -0.400000215 
-0.0755828768 0.392774016 0.198884085 
-0.124237314 0.225397706 -0.400000185 
-0.386690706 -0.102031894 -0.344155282 
-0.166127607 -0.356337935 -0.399999946 
0.103908785 -0.386145413 -0.168787107 
0.00349643221 -0.272053182 -0.400000125 
0.164535716 0.129057989 -0.400000691 
-0.119919606 0.265482664 -0.399999321 
0.20254983 -0.282026261 -0.400000006 
0.222916767 -0.12857087 0.399999231 
-0.371897638 -0.147279769 -0.321824878 
0.0980748385 -0.387746453 -0.265545189 
-0.0312860906 -0.247210056 -0.400001287 
-0.119757205 -0.381541014 -0.0457183383 
0.217908427 0.33529976 0.0981951728 
-0.359230995 -0.175610453 0.031919647 
-0.325564146 0.232233956 0.259720355 
-0.0863278806 -0.241325423 -0.400000215 
0.308784038 0.254223526 0.358156204 
-0.0682433024 0.393977523 -0.340044171 
0.0415224396 0.254899114 0.399998575 
-0.355392337 -0.103545375 0.39999935 
-0.251043141 -0.311250955 0.231486693 
-0.0802447274 0.09259253 -0.399999887 
0.0729526132 -0.231167421 -0.39999944 
-0.32300055 -0.235895708 -0.249262616 
-0.201813057 -0.345134109 0.251786262 
-0.305627674 -0.257893384 0.048080422 
0.0132216187 -0.399584502 0.360667199 
0.00727191148 0.287923396 -0.400000066 
-0.306437045 -0.256975323 -0.382809252 
-0.332515001 -0.222006068 -0.139658734 
-0.34829694 -0.196464956 -0.361086339 
0.0108114742 -0.018785432 -0.400000185 
0.140457377 0.289332777 -0.400001258 
-0.354786575 -0.184333086 0.365236789 
-0.386713982 -0.101951778 -0.0889184996 
-0.334998548 -0.218351662 0.0681694075 
0.280542761 -0.232486621 -0.399998844 
-0.230080754 -0.257238954 -0.400000393 
0.296528786 -0.268213987 -0.185459569 
0.206750885 -0.342213869 -0.289629668 
-0.170398533 0.361886591 -0.184324697 
0.132367134 -0.377268702 -0.329689741 
0.348245889 -0.0254211016 -0.400000542 
-0.348284274 -0.196486399 -0.254678011 
-0.0939456522 -0.238485843 -0.400001258 
-0.21205309 -0.0513856374 -0.400000572 
0.130357504 -0.377992213 0.149691254 
0.0725263357 -0.342664152 -0.399999797 
-0.117389448 0.371144295 -0.399998635 
0.314904273 0.0400559641 -0.39999947 
-0.254449636 0.308608651 -0.165130377 
0.230798841 0.326539457 -0.210077718 
0.39768973 0.0412064828 0.242404178 
0.270713687 -0.05688034 -0.400001049 
-0.196068496 -0.348531425 0.148077294 
0.377081871 -0.132886022 0.0568716042 
-0.374216229 -0.140845627 -0.140920356 
-0.185174346 0.354357928 0.203853995 
-0.163585469 0.299187422 -0.400000185 
0.0351378657 0.216183171 -0.399999738 
-0.0711951554 0.393510014 0.0779246315 
0.00416944642 0.0291236527 -0.399999917 
-0.00352432765 0.310766667 -0.400001258 
-0.146037772 0.0555066392 -0.400000334 
-0.380211592 0.0157231838 0.399999708 
-0.172597021 0.0474763177 -0.399999321 
0.136174232 -0.375898063 -0.368000746 
0.0486440919 -0.396986693 -0.0670598969 
0.148510352 0.270336449 -0.399998754 
0.0689651892 -0.393863201 -0.222057298 
0.0265324377 0.00348807103 -0.399999976 
-0.265089542 0.299283385 0.0270924326 
-0.221439347 0.0777783394 -0.399998814 
-0.355827063 -0.182291016 0.0412590764 
-0.166420683 -0.363614649 0.18195875 
-0.373618513 -0.142505869 -0.339657396 
-0.348466128 0.167603284 0.399998993 
0.0286623351 -0.398875475 -0.166363627 
0.0818756372 -0.391367406 0.237429857 
0.0555932112 -0.395981133 -0.352134466 
0.225653395 0.1991359 0.400000632 
0.27401951 -0.291386783 0.0207080133 
0.0682564154 -0.261234075 0.399999589 
0.225175098 -0.330361336 -0.371353775 
0.125055313 0.379901111 -0.388298988 
-0.206117243 0.239518464 0.399998933 
-0.391821802 -0.0721839517 0.400000453 
-0.136553094 0.291012883 0.4000009 
-0.176285416 -0.218466043 -0.399998605 
-0.0391883999 -0.397880465 -0.220321134 
-0.316126198 -0.244758055 -0.350063235 
-0.327821881 -0.228911817 0.22530669 
0.0992905572 -0.387474716 -0.189028308 
-0.0824042857 0.391249239 -0.0440881252 
0.111913949 -0.277074009 0.399999112 
0.0480492525 0.135035127 -0.399999768 
-0.399186701 -0.0253699124 -0.0573271289 
-0.0576543622 -0.097201705 -0.400000602 
-0.108354039 -0.384853959 0.187833577 
0.393443674 -0.0716141388 0.362893105 
-0.0533662811 0.198846176 0.399999231 
-0.158892602 -0.36687234 -0.268767655 
0.338361591 -0.213264763 -0.289197206 
0.29625988 -0.268519044 0.28158316 
0.229988024 0.279168248 -0.400001079 
0.0533178411 0.146900207 -0.39999944 
-0.0691195726 -0.393838763 0.183699846 
-0.013200636 -0.399585158 -0.0463449955 
0.188267261 -0.233283475 -0.400001258 
-0.222264811 -0.332339138 -0.159413725 
-0.0156370848 -0.399508595 -0.0809387714 
0.0769502446 0.392468363 -0.221887589 
-0.226107538 0.0321479477 0.399998963 
0.206401527 0.251719594 -0.400000364 
0.105227098 -0.385762423 0.269253135 
-0.191830814 -0.350966305 -0.268448114 
-0.386277914 -0.103452757 -0.209989116 
-0.174443036 -0.318249226 0.399998873 
0.276091516 0.0973150805 -0.39999947 
-0.364667267 -0.163988143 -0.0320000164 
0.205426738 -0.342996985 0.338288575 
-0.188871488 0.264336765 -0.40000084 
0.260298848 -0.303506941 -0.116424225 
-0.101924963 -0.38672176 0.240796506 
-0.350460261 -0.192806974 0.237406 
-0.138279766 0.234153643 -0.399999708 
-0.112780012 -0.0334377214 0.400000244 
-0.0986124873 0.38762629 0.316401124 
0.0937074497 -0.388722688 0.282186925 
0.271905273 -0.142127916 -0.400000364 
0.135542035 0.376125664 -0.330750704 
0.237200767 0.0181115009 -0.39999935 
-0.285785645 -0.279620677 0.251251787 
-0.35596472 -0.182020813 -0.357130855 
-0.0354634039 -0.398232579 0.225794435 
-0.256054521 0.0896508396 -0.400000989 
0.366410851 -0.139355779 -0.400000423 
0.0056460835 -0.399822563 -0.278045803 
-0.116310455 -0.382542402 -0.0982533917 
-0.174491078 -0.304192483 0.400001377 
-0.350164235 -0.193307534 0.254884392 
-0.00772075681 -0.399757355 -0.30523178 
0.169085994 0.173626125 -0.400000662 
-0.148196831 0.0702873915 0.400000423 
0.398334622 0.0343842991 -0.362390488 
-0.256250083 -0.307076365 -0.28049618 
0.208575189 0.341134995 -0.239342883 
-0.322728068 -0.209563985 0.39999938 
-0.0133387335 -0.399580806 0.151109025 
-0.268669903 -0.296126872 0.38876161 
0.327467591 -0.229433164 -0.153486833 
-0.0493065454 -0.396924049 0.00215611467 
-0.136052236 -0.163598567 0.400001049 
0.0756415874 -0.295993298 -0.399998575 
0.176659361 -0.35869655 0.0680711269 
-0.077944167 -0.392246217 0.391276598 
-0.288165867 -0.277240425 0.236723959 
-0.140997395 -0.374161631 0.315323651 
-0.367638141 -0.15712285 0.382582605 
-0.0956031904 0.0518265329 -0.399999738 
-0.341168165 0.0987249687 0.399999112 
-0.202155963 -0.000370719179 -0.400001019 
0.0265124291 -0.399078727 -0.237121776 
-0.339971393 -0.210542694 0.323384583 
0.0629267097 0.394819617 0.149615794 
-0.150900945 0.329253584 -0.400000572 
-0.19789888 -0.347448945 -0.315204859 
-0.190985411 0.351397038 0.0280915257 
0.122848168 -0.288366139 -0.399998873 
-0.245841354 0.315285891 -0.272620678 
-0.384497643 -0.109580442 -0.259439379 
0.251912117 0.115254477 -0.399999142 
-0.366810471 -0.159035489 -0.372627825 
-0.264790237 0.299547255 -0.161610082 
-0.27324155 -0.292096406 -0.214468047 
0.120612346 0.129906014 -0.400000572 
-0.213186532 -0.338407815 0.308155417 
0.183366537 -0.355279088 -0.240785703 
0.186670527 -0.20643957 -0.400001138 
0.282107621 0.283298701 -0.39829728 
0.212656707 0.190330431 -0.400001496 
-0.317351013 -0.243179023 -0.310566187 
-0.01780493 0.357650816 0.399999201 
-0.0978075117 -0.387806237 0.308818668 
-0.125951067 -0.210849762 -0.400000483 
-0.340523362 0.209609449 -0.0350113884 
0.00124031864 -0.202946365 0.399999559 
-0.0714716688 -0.23913838 0.39999935 
-0.239305511 -0.320355594 0.253844649 
0.288515329 0.276890963 -0.173499256 
0.0995239988 -0.0630939156 -0.399999499 
-0.101941824 0.198788971 -0.399999559 
-0.258568227 -0.30503267 0.0603882559 
0.183136716 0.160234854 0.400000781 
-0.0778546035 0.33550173 -0.399998635 
-0.134763896 -0.0363657139 0.40000084 
0.191059604 -0.0307365227 -0.400000751 
-0.0214018915 0.397393048 0.399999827 
-0.197811767 -0.347500443 -0.299409479 
-0.143406391 -0.330284208 0.399998516 
-0.260070831 -0.303707957 -0.0489297882 
-0.0174093544 -0.107349604 -0.400000542 
-0.228121161 -0.316900581 0.400001258 
-0.24269636 -0.31772539 0.396680862 
0.326041073 -0.231532216 0.350072682 
0.0768479705 -0.392491221 -0.0121154785 
-0.206964701 0.342087418 -0.386590004 
0.344180584 0.203425393 0.0621672869 
-0.0101753175 -0.120767139 -0.399999321 
-0.35830164 0.177434415 -0.161963418 
-0.0255087987 0.399173588 -0.256554127 
0.285821944 0.279584378 0.0264402162 
-0.271229446 0.29387033 -0.0742328689 
-9.76316587e-05 -0.399996936 -0.0832495242 
-0.0941141397 0.201306924 0.39999941 
0.213580042 -0.338175118 -0.148291782 
-0.0273513868 0.170003727 0.399999946 
0.0774094164 -0.392365724 -0.291986138 
-0.0698813722 0.263684779 0.400000364 
-0.306402773 0.209964246 0.400001317 
-0.334806919 0.218633652 0.323703796 
-0.347165972 -0.198377356 0.163825944 
-0.396952003 0.049010843 0.221715108 
-0.362025499 -0.170092911 0.348751038 
-0.373382598 -0.143161103 -0.0765215904 
0.0138511453 -0.399564713 -0.324267387 
-0.240638241 0.319321841 0.268017948 
-0.19753404 -0.329666048 0.400000334 
-0.152059138 0.122388199 -0.400000751 
0.185319945 -0.35428375 0.136686042 
-0.352241904 -0.189327285 0.376179814 
-0.167845652 0.362997979 0.0984072015 
0.0728096515 0.39325431 0.0569795631 
-0.218572766 -0.334848255 0.160907581 
-0.119680397 0.222621977 0.4000009 
