ply
format ascii 1.0
comment created by gply, a Houdini tool.
comment converted from .[b]geo
comment for more information about Houdini, try:
comment www.sidefx.com
element vertex 866
property float x
property float y
property float z
element face 0
property list uchar int vertex_indices
end_header
1 0 0 
0.998445332 0.00987683609 0 
0.996890724 0.0197536722 0 
0.995336056 0.0296305101 0 
0.993781447 0.0395073444 0 
0.992226779 0.0493841805 0 
0.990672112 0.0592610203 0 
0.989117503 0.0691378489 0 
0.98733896 0.0789449662 0 
0.983011127 0.087958239 0 
0.978683352 0.0969715044 0 
0.974355578 0.105984777 0 
0.970027804 0.114998057 0 
0.965699971 0.124011323 0 
0.961372197 0.133024588 0 
0.957044423 0.142037868 0 
0.952716589 0.151051134 0 
0.94712472 0.159254625 0 
0.940746188 0.16695419 0 
0.934367657 0.174653724 0 
0.927989185 0.182353288 0 
0.921610653 0.190052852 0 
0.915232122 0.197752416 0 
0.90885359 0.205451965 0 
0.902475059 0.213151544 0 
0.896096528 0.220851094 0 
0.88944155 0.228272155 0 
0.881694674 0.234593064 0 
0.87394768 0.240913987 0 
0.866200805 0.247234896 0 
0.85845387 0.253555804 0 
0.850706935 0.259876728 0 
0.84296 0.266197652 0 
0.835213065 0.272518575 0 
0.82746613 0.278839469 0 
0.819719255 0.285160393 0 
0.81197232 0.291481316 0 
0.803680062 0.297017008 0 
0.795051515 0.302068383 0 
0.786422908 0.307119757 0 
0.777794361 0.312171131 0 
0.769165754 0.317222536 0 
0.760537207 0.32227391 0 
0.7519086 0.327325284 0 
0.743279994 0.332376689 0 
0.734651446 0.337428063 0 
0.72602284 0.342479438 0 
0.717394292 0.347530812 0 
0.708765686 0.352582216 0 
0.699679494 0.356725127 0 
0.690484405 0.360651821 0 
0.681289315 0.364578485 0 
0.672094226 0.36850515 0 
0.662899077 0.372431844 0 
0.653703988 0.376358539 0 
0.644508958 0.380285203 0 
0.635313749 0.384211898 0 
0.62611866 0.388138592 0 
0.616923511 0.392065287 0 
0.607728422 0.395991951 0 
0.598533273 0.399918646 0 
0.589338243 0.40384531 0 
0.579840064 0.406942904 0 
0.570280254 0.409872025 0 
0.560720563 0.412801147 0 
0.551160753 0.415730268 0 
0.541600943 0.418659389 0 
0.532041252 0.42158848 0 
0.522481441 0.424517632 0 
0.512921691 0.427446723 0 
0.50336194 0.430375844 0 
0.49380219 0.433304965 0 
0.48424238 0.436234087 0 
0.47468254 0.439163208 0 
0.465122879 0.442092299 0 
0.455563068 0.445021421 0 
0.445810378 0.447197437 0 
0.436019719 0.449225128 0 
0.426229089 0.451252848 0 
0.416438401 0.453280568 0 
0.406647742 0.455308288 0 
0.396857023 0.457336009 0 
0.387066394 0.459363699 0 
0.377275705 0.461391419 0 
0.367485046 0.463419139 0 
0.357694328 0.46544686 0 
0.347903699 0.46747455 0 
0.33811301 0.46950227 0 
0.328322351 0.47152999 0 
0.318531722 0.473557711 0 
0.308737159 0.475561857 0 
0.298810035 0.476753503 0 
0.288882762 0.477945179 0 
0.278955638 0.479136825 0 
0.269028544 0.480328441 0 
0.259101272 0.481520116 0 
0.249173999 0.482711792 0 
0.23924689 0.483903438 0 
0.229319766 0.485095054 0 
0.219392508 0.48628673 0 
0.209465384 0.487478375 0 
0.199538261 0.488670021 0 
0.189611003 0.489861667 0 
0.179683894 0.491053313 0 
0.16975677 0.492244959 0 
0.159829512 0.493436635 0 
0.149860576 0.494102865 0 
0.139869779 0.494496018 0 
0.129879147 0.49488914 0 
0.119888365 0.495282292 0 
0.109897867 0.495675415 0 
0.0999069363 0.496068567 0 
0.0899162963 0.496461719 0 
0.0799256563 0.496854872 0 
0.0699348748 0.497247994 0 
0.0599442348 0.497641146 0 
0.0499534458 0.498034298 0 
0.0399628058 0.498427421 0 
0.0299720168 0.498820573 0 
0.0199813843 0.499213725 0 
0.00999058783 0.499606848 0 
-4.37113883e-08 0.5 0 
-0.00999068096 0.499606848 0 
-0.0199814662 0.499213725 0 
-0.0299721044 0.498820573 0 
-0.0399628915 0.498427421 0 
-0.0499535315 0.498034298 0 
-0.0599443167 0.497641146 0 
-0.0699349567 0.497247994 0 
-0.0799257383 0.496854872 0 
-0.0899163783 0.496461719 0 
-0.0999070182 0.496068567 0 
-0.1098978 0.495675445 0 
-0.11988844 0.495282292 0 
-0.129879221 0.49488914 0 
-0.139869869 0.494496018 0 
-0.14986065 0.494102865 0 
-0.159829587 0.493436635 0 
-0.169756696 0.492244989 0 
-0.179683954 0.491053313 0 
-0.189611077 0.489861667 0 
-0.199538335 0.488670021 0 
-0.209465459 0.487478375 0 
-0.219392568 0.48628673 0 
-0.229319841 0.485095054 0 
-0.239246964 0.483903408 0 
-0.249174356 0.482711732 0 
-0.259101331 0.481520087 0 
-0.269028604 0.480328441 0 
-0.278955698 0.479136795 0 
-0.288882852 0.477945149 0 
-0.298809946 0.476753503 0 
-0.308737218 0.475561827 0 
-0.318531781 0.473557681 0 
-0.3283225 0.471529961 0 
-0.33811307 0.46950227 0 
-0.347903788 0.46747452 0 
-0.357694477 0.4654468 0 
-0.367485046 0.46341911 0 
-0.377275765 0.461391389 0 
-0.387066483 0.459363669 0 
-0.396857202 0.457335949 0 
-0.406647742 0.455308259 0 
-0.41643846 0.453280538 0 
-0.426229179 0.451252818 0 
-0.436019897 0.449225098 0 
-0.445810467 0.447197407 0 
-0.455563247 0.445021391 0 
-0.465122879 0.442092299 0 
-0.474682659 0.439163178 0 
-0.484242439 0.436234057 0 
-0.49380222 0.433304936 0 
-0.503362 0.430375814 0 
-0.51292181 0.427446693 0 
-0.522481561 0.424517572 0 
-0.532041371 0.421588451 0 
-0.541601121 0.418659329 0 
-0.551160932 0.415730208 0 
-0.560720563 0.412801117 0 
-0.570280373 0.409871995 0 
-0.579840124 0.406942874 0 
-0.589338362 0.403845221 0 
-0.598533452 0.399918556 0 
-0.607728481 0.395991921 0 
-0.616923571 0.392065227 0 
-0.62611872 0.388138533 0 
-0.635313809 0.384211868 0 
-0.644509077 0.380285114 0 
-0.653704047 0.376358479 0 
-0.662899196 0.372431815 0 
-0.672094285 0.36850512 0 
-0.681289434 0.364578426 0 
-0.690484524 0.360651731 0 
-0.699679554 0.356725097 0 
-0.708765805 0.352582157 0 
-0.717394352 0.347530782 0 
-0.726022899 0.342479408 0 
-0.734651387 0.337428093 0 
-0.743280113 0.332376629 0 
-0.75190866 0.327325255 0 
-0.760537207 0.32227388 0 
-0.769165695 0.317222565 0 
-0.777794421 0.312171072 0 
-0.786423087 0.307119668 0 
-0.795051575 0.302068353 0 
-0.803680003 0.297017038 0 
-0.81197238 0.291481256 0 
-0.819719255 0.285160393 0 
-0.82746613 0.278839499 0 
-0.835213184 0.272518486 0 
-0.84296006 0.266197592 0 
-0.850706935 0.259876728 0 
-0.85845381 0.253555834 0 
-0.866200864 0.247234821 0 
-0.87394774 0.240913942 0 
-0.881694794 0.234592929 0 
-0.88944149 0.22827217 0 
-0.896096468 0.220851153 0 
-0.902475119 0.213151455 0 
-0.908853531 0.205452025 0 
-0.915231943 0.197752595 0 
-0.921610713 0.190052763 0 
-0.927989244 0.182353199 0 
-0.934367716 0.174653634 0 
-0.940746248 0.16695407 0 
-0.947124779 0.159254506 0 
-0.952716649 0.151051134 0 
-0.957044423 0.142037854 0 
-0.961372197 0.133024588 0 
-0.965699911 0.124011457 0 
-0.970027804 0.114998035 0 
-0.974355638 0.105984613 0 
-0.978683352 0.096971482 0 
-0.983011246 0.0879580677 0 
-0.98733896 0.0789449364 0 
-0.989117503 0.0691376626 0 
-0.990672112 0.0592610016 0 
-0.99222672 0.0493843332 0 
-0.993781388 0.0395073667 0 
-0.995336056 0.029630553 0 
-0.996890724 0.0197535865 0 
-0.998445392 0.00987662375 0 
-1 -4.37113883e-08 0 
-0.998445332 -0.00987700745 0 
-0.996890724 -0.0197536722 0 
-0.995336056 -0.0296306368 0 
-0.993781388 -0.0395074524 0 
-0.992226779 -0.0493841209 0 
-0.990672112 -0.0592610836 0 
-0.989117444 -0.0691377521 0 
-0.987338901 -0.0789450184 0 
-0.983011007 -0.0879584402 0 
-0.978683293 -0.0969715714 0 
-0.974355459 -0.105984993 0 
-0.970027745 -0.114998117 0 
-0.965699852 -0.124011546 0 
-0.961372137 -0.133024663 0 
-0.957044423 -0.142037809 0 
-0.952716589 -0.151051223 0 
-0.94712472 -0.159254596 0 
-0.940746188 -0.16695416 0 
-0.934367657 -0.174653724 0 
-0.927989185 -0.182353288 0 
-0.921610534 -0.190052986 0 
-0.915232122 -0.197752416 0 
-0.908853471 -0.205452114 0 
-0.902475059 -0.213151544 0 
-0.896096528 -0.220851108 0 
-0.889441431 -0.228272259 0 
-0.881694734 -0.234593019 0 
-0.87394768 -0.240914032 0 
-0.866200805 -0.247234911 0 
-0.858453751 -0.253555924 0 
-0.850706875 -0.259876817 0 
-0.84296 -0.266197681 0 
-0.835212946 -0.272518694 0 
-0.827466011 -0.278839588 0 
-0.819719315 -0.285160363 0 
-0.81197226 -0.291481376 0 
-0.803680062 -0.297017008 0 
-0.795051455 -0.302068442 0 
-0.786422968 -0.307119727 0 
-0.777794302 -0.312171161 0 
-0.769165635 -0.317222595 0 
-0.760537207 -0.32227391 0 
-0.751908362 -0.327325433 0 
-0.743279874 -0.332376748 0 
-0.734651446 -0.337428063 0 
-0.72602278 -0.342479467 0 
-0.717394352 -0.347530782 0 
-0.708765686 -0.352582216 0 
-0.699679554 -0.356725127 0 
-0.690484107 -0.36065194 0 
-0.681289077 -0.364578575 0 
-0.672094107 -0.36850521 0 
-0.662898839 -0.372431964 0 
-0.653703868 -0.376358598 0 
-0.644508839 -0.380285233 0 
-0.635313809 -0.384211868 0 
-0.626118839 -0.388138503 0 
-0.616923571 -0.392065227 0 
-0.607728601 -0.395991862 0 
-0.598533571 -0.399918497 0 
-0.589338124 -0.40384534 0 
-0.579840124 -0.406942904 0 
-0.570280075 -0.409872085 0 
-0.560720503 -0.412801147 0 
-0.551160753 -0.415730268 0 
-0.541600943 -0.418659389 0 
-0.532041371 -0.421588421 0 
-0.522481322 -0.424517632 0 
-0.51292181 -0.427446693 0 
-0.503362 -0.430375814 0 
-0.493801922 -0.433305025 0 
-0.48424238 -0.436234057 0 
-0.474682331 -0.439163268 0 
-0.465122789 -0.442092299 0 
-0.455562979 -0.445021421 0 
-0.445810378 -0.447197437 0 
-0.436019838 -0.449225128 0 
-0.426229 -0.451252848 0 
-0.41643846 -0.453280538 0 
-0.406647652 -0.455308288 0 
-0.396856844 -0.457336038 0 
-0.387066305 -0.459363729 0 
-0.377275467 -0.461391479 0 
-0.367484927 -0.463419139 0 
-0.357694119 -0.465446889 0 
-0.347903579 -0.46747458 0 
-0.33811304 -0.46950227 0 
-0.328322232 -0.47153002 0 
-0.318531692 -0.473557711 0 
-0.308737129 -0.475561857 0 
-0.298809856 -0.476753503 0 
-0.288882613 -0.477945179 0 
-0.27895534 -0.479136825 0 
-0.269028366 -0.48032847 0 
-0.259101093 -0.481520116 0 
-0.249174133 -0.482711762 0 
-0.239246875 -0.483903408 0 
-0.229319602 -0.485095084 0 
-0.219392642 -0.4862867 0 
-0.209465384 -0.487478375 0 
-0.199538112 -0.488670021 0 
-0.189610869 -0.489861697 0 
-0.179683596 -0.491053343 0 
-0.169756621 -0.492244989 0 
-0.159829363 -0.493436635 0 
-0.149860427 -0.494102836 0 
-0.139869928 -0.494495988 0 
-0.129879132 -0.49488914 0 
-0.119888335 -0.495282292 0 
-0.109897539 -0.495675415 0 
-0.0999070406 -0.496068567 0 
-0.0899162441 -0.496461719 0 
-0.0799254477 -0.496854842 0 
-0.0699349567 -0.497247994 0 
-0.0599438623 -0.497641146 0 
-0.0499533638 -0.498034298 0 
-0.0399628654 -0.498427421 0 
-0.0299720764 -0.498820573 0 
-0.01998128 -0.499213725 0 
-0.00999048352 -0.499606878 0 
1.19248806e-08 -0.5 0 
0.00999080669 -0.499606848 0 
0.0199816003 -0.499213696 0 
0.0299723931 -0.498820543 0 
0.0399631895 -0.498427421 0 
0.0499536842 -0.498034269 0 
0.0599441789 -0.497641146 0 
0.0699349791 -0.497247994 0 
0.0799257681 -0.496854842 0 
0.0899165645 -0.496461689 0 
0.0999070629 -0.496068567 0 
0.109898157 -0.495675415 0 
0.119888648 -0.495282263 0 
0.129879147 -0.49488914 0 
0.139870241 -0.494495958 0 
0.14986074 -0.494102836 0 
0.159829676 -0.493436605 0 
0.169756934 -0.492244929 0 
0.179683909 -0.491053313 0 
0.189611167 -0.489861637 0 
0.199538141 -0.488670021 0 
0.209465697 -0.487478316 0 
0.219392955 -0.48628667 0 
0.22931993 -0.485095024 0 
0.239247188 -0.483903378 0 
0.249174163 -0.482711762 0 
0.259101421 -0.481520087 0 
0.269028693 -0.480328441 0 
0.278955638 -0.479136795 0 
0.288882911 -0.477945149 0 
0.298809886 -0.476753503 0 
0.308737159 -0.475561857 0 
0.31853202 -0.473557651 0 
0.328322291 -0.47152999 0 
0.338113159 -0.46950224 0 
0.347903997 -0.46747449 0 
0.357694834 -0.46544674 0 
0.367485136 -0.46341911 0 
0.377275974 -0.46139136 0 
0.387066275 -0.459363729 0 
0.396857113 -0.457335949 0 
0.40664798 -0.455308199 0 
0.416438252 -0.453280568 0 
0.426229656 -0.451252699 0 
0.436019957 -0.449225068 0 
0.445810795 -0.447197318 0 
0.455563158 -0.445021391 0 
0.4651227 -0.442092329 0 
0.474682778 -0.439163148 0 
0.48424232 -0.436234087 0 
0.493802369 -0.433304876 0 
0.503361881 -0.430375844 0 
0.512921929 -0.427446634 0 
0.522481501 -0.424517572 0 
0.532041073 -0.42158854 0 
0.541601121 -0.418659329 0 
0.551160634 -0.415730268 0 
0.560720682 -0.412801087 0 
0.570280254 -0.409872025 0 
0.579839766 -0.406942964 0 
0.589338064 -0.4038454 0 
0.598533094 -0.399918735 0 
0.607728541 -0.395991921 0 
0.616923571 -0.392065287 0 
0.626118541 -0.388138622 0 
0.635313988 -0.384211808 0 
0.644509017 -0.380285174 0 
0.653703988 -0.376358509 0 
0.662899435 -0.372431695 0 
0.672094464 -0.368505061 0 
0.681289434 -0.364578426 0 
0.690484464 -0.360651761 0 
0.699679911 -0.356724948 0 
0.708765805 -0.352582157 0 
0.717394292 -0.347530842 0 
0.72602272 -0.342479527 0 
0.734651566 -0.337427974 0 
0.743279636 -0.332376897 0 
0.751908481 -0.327325344 0 
0.760537744 -0.322273582 0 
0.769166172 -0.317222267 0 
0.777794659 -0.312170953 0 
0.786423087 -0.307119668 0 
0.795051932 -0.302068114 0 
0.803680003 -0.297017038 0 
0.811972558 -0.291481167 0 
0.819719434 -0.285160303 0 
0.827466607 -0.278839171 0 
0.835213423 -0.272518307 0 
0.842960298 -0.266197443 0 
0.850707471 -0.259876311 0 
0.858453691 -0.253555954 0 
0.866201162 -0.247234583 0 
0.87394774 -0.240913972 0 
0.881694615 -0.234593108 0 
0.88944149 -0.228272244 0 
0.896096766 -0.22085081 0 
0.902475059 -0.213151529 0 
0.90885359 -0.205451965 0 
0.91523236 -0.197752118 0 
0.921610653 -0.190052837 0 
0.927989185 -0.182353273 0 
0.934367657 -0.174653709 0 
0.940746427 -0.166953862 0 
0.947124481 -0.159254849 0 
0.952716649 -0.151051059 0 
0.957044363 -0.142037913 0 
0.961372256 -0.133024484 0 
0.965699852 -0.124011628 0 
0.970027804 -0.114997901 0 
0.974355698 -0.105984464 0 
0.978683293 -0.0969716161 0 
0.983011127 -0.0879581794 0 
0.987338901 -0.0789450407 0 
0.989117444 -0.069137916 0 
0.990672112 -0.059261106 0 
0.992226779 -0.0493839905 0 
0.993781447 -0.039507173 0 
0.995336056 -0.0296306573 0 
0.996890783 -0.0197532438 0 
0.998445332 -0.00987672806 0 
1 8.74227766e-08 0 
0 0 -0.699999988 
0 0.00991953909 -0.698907018 
0 0.0198390782 -0.697814107 
0 0.0297586154 -0.696721137 
0 0.0396781564 -0.695628166 
0 0.0495976917 -0.694535196 
0 0.0595172308 -0.693442285 
0 0.0694367737 -0.692349315 
0 0.0793034881 -0.691016793 
0 0.0887630284 -0.687837303 
0 0.0982225686 -0.684657872 
0 0.107682101 -0.681478441 
0 0.117141642 -0.67829895 
0 0.126601189 -0.675119519 
0 0.13606073 -0.671940088 
0 0.14552027 -0.668760657 
0 0.154938638 -0.66549015 
0 0.163571641 -0.660483897 
0 0.172204643 -0.655477583 
0 0.180837676 -0.65047133 
0 0.189470679 -0.645465016 
0 0.198103711 -0.640458763 
0 0.206736714 -0.635452449 
0 0.215369731 -0.630446196 
0 0.224002749 -0.625439882 
0 0.231943935 -0.619458973 
0 0.239518061 -0.612960994 
0 0.247092217 -0.606462955 
0 0.254666358 -0.599964917 
0 0.262240499 -0.593466938 
0 0.26981464 -0.586968899 
0 0.277388781 -0.58047092 
0 0.284962922 -0.573972881 
0 0.292537063 -0.567474842 
0 0.299149036 -0.560026705 
0 0.305551291 -0.552371502 
0 0.311953545 -0.544716179 
0 0.318355799 -0.537060976 
0 0.324758083 -0.529405653 
0 0.331160277 -0.52175045 
0 0.337562561 -0.514095187 
0 0.343964815 -0.506439924 
0 0.350367069 -0.498784661 
0 0.356164068 -0.490695357 
0 0.361361355 -0.482175976 
0 0.366558671 -0.473656595 
0 0.371755987 -0.465137213 
0 0.376953304 -0.456617832 
0 0.38215059 -0.448098511 
0 0.387347907 -0.439579129 
0 0.392545223 -0.431059748 
0 0.39774254 -0.422540367 
0 0.402939856 -0.414021015 
0 0.40730238 -0.405066818 
0 0.411303997 -0.395924717 
0 0.415305674 -0.386782557 
0 0.419307321 -0.377640426 
0 0.423308969 -0.368498296 
0 0.427310616 -0.359356165 
0 0.431312263 -0.350214005 
0 0.43531391 -0.341071904 
0 0.439315557 -0.331929743 
0 0.443317205 -0.322787613 
0 0.446787864 -0.313451558 
0 0.449619144 -0.303882062 
0 0.452450454 -0.294312596 
0 0.455281764 -0.284743041 
0 0.458113045 -0.275173545 
0 0.460944355 -0.265604049 
0 0.463775665 -0.256034464 
0 0.466606945 -0.246465027 
0 0.469438285 -0.236895442 
0 0.472269565 -0.227325946 
0 0.475100875 -0.217756465 
0 0.476960361 -0.20796068 
0 0.478647083 -0.198124692 
0 0.480333805 -0.188288689 
0 0.482020527 -0.1784527 
0 0.483707249 -0.168616697 
0 0.485394001 -0.158780709 
0 0.487080723 -0.148944706 
0 0.488767445 -0.139108717 
0 0.490454167 -0.129272714 
0 0.492140859 -0.119436823 
0 0.493827611 -0.109600723 
0 0.494398803 -0.0996382311 
0 0.494958907 -0.0896743387 
0 0.495519042 -0.0797104537 
0 0.496079147 -0.0697466731 
0 0.496639282 -0.0597827807 
0 0.497199416 -0.0498189963 
0 0.497759521 -0.039855212 
0 0.498319656 -0.0298913196 
0 0.498879761 -0.0199275389 
0 0.499439895 -0.00996364653 
0 0.5 2.39460434e-07 
0 0.499439865 0.00996402279 
0 0.498879761 0.0199279096 
0 0.498319626 0.029891694 
0 0.497759491 0.0398555808 
0 0.497199386 0.0498193651 
0 0.496639252 0.0597831495 
0 0.496079147 0.0697470382 
0 0.495519012 0.0797109231 
0 0.494958907 0.0896747112 
0 0.494398773 0.0996385962 
0 0.493827522 0.109601185 
0 0.49214083 0.119437076 
0 0.490454108 0.129273072 
0 0.488767356 0.139109164 
0 0.487080634 0.148945063 
0 0.485393912 0.158781052 
0 0.48370719 0.168617159 
0 0.482020438 0.178453147 
0 0.480333745 0.188289046 
0 0.478646994 0.198125154 
0 0.476960272 0.207961142 
0 0.475100726 0.217756853 
0 0.472269416 0.227326393 
0 0.469438106 0.236895934 
0 0.466606826 0.24646537 
0 0.463775516 0.256034911 
0 0.460944206 0.265604436 
0 0.458112955 0.275173783 
0 0.455281645 0.284743339 
0 0.452450335 0.294312984 
0 0.449619055 0.30388242 
0 0.446787775 0.313451856 
0 0.443317056 0.32278797 
0 0.439315379 0.331930161 
0 0.435313791 0.341072172 
0 0.431312114 0.350214332 
0 0.427310437 0.359356523 
0 0.423308849 0.368498534 
0 0.419307172 0.377640694 
0 0.415305495 0.386782885 
0 0.411303908 0.395924896 
0 0.407302231 0.405067086 
0 0.402939618 0.414021283 
0 0.397742331 0.422540635 
0 0.392545044 0.431059986 
0 0.387347698 0.439579397 
0 0.382150382 0.448098838 
0 0.376953125 0.4566181 
0 0.371755809 0.465137511 
0 0.366558462 0.473656952 
0 0.361361235 0.482176185 
0 0.356163889 0.490695626 
0 0.350366801 0.498784959 
0 0.343964547 0.506440222 
0 0.337562323 0.514095485 
0 0.331160039 0.521750748 
0 0.324757785 0.529406011 
0 0.31835562 0.537061214 
0 0.311953336 0.544716477 
0 0.305551052 0.55237174 
0 0.299148858 0.560027003 
0 0.292536885 0.56747508 
0 0.284962624 0.573973179 
0 0.277388602 0.580471039 
0 0.269814461 0.586969078 
0 0.262240201 0.593467176 
0 0.25466606 0.599965215 
0 0.247092038 0.606463075 
0 0.239517778 0.612961233 
0 0.231943637 0.619459212 
0 0.224002466 0.625440061 
0 0.215369523 0.630446315 
0 0.206736445 0.635452628 
0 0.198103502 0.640458882 
0 0.189470425 0.645465195 
0 0.180837333 0.650471509 
0 0.172204405 0.655477703 
0 0.163571328 0.660484016 
0 0.15493837 0.66549027 
0 0.145519853 0.668760717 
0 0.136060447 0.671940148 
0 0.126600876 0.675119638 
0 0.117141306 0.678299069 
0 0.107681885 0.6814785 
0 0.0982223228 0.684657931 
0 0.0887627602 0.687837422 
0 0.0793031901 0.691016853 
0 0.0694364905 0.692349374 
0 0.0595168546 0.693442285 
0 0.0495973751 0.694535255 
0 0.0396778882 0.695628226 
0 0.0297582559 0.696721137 
0 0.0198387727 0.697814107 
0 0.00991929322 0.698907077 
0 -3.42086565e-07 0.699999928 
0 -0.00991982501 0.698907018 
0 -0.0198393054 0.697814047 
0 -0.0297589377 0.696721077 
0 -0.0396784209 0.695628107 
0 -0.0495979041 0.694535196 
0 -0.0595175363 0.693442225 
0 -0.0694370195 0.692349255 
0 -0.0793037117 0.691016674 
0 -0.0887632817 0.687837183 
0 -0.0982228443 0.684657753 
0 -0.107682407 0.681478322 
0 -0.117141828 0.678298891 
0 -0.126601547 0.6751194 
0 -0.136060968 0.671939969 
0 -0.145520389 0.668760598 
0 -0.154938877 0.665490031 
0 -0.16357182 0.660483778 
0 -0.172204763 0.655477524 
0 -0.180837989 0.650471151 
0 -0.189470917 0.645464897 
0 -0.19810386 0.640458643 
0 -0.206736952 0.63545233 
0 -0.21536988 0.630446136 
0 -0.224002838 0.625439882 
0 -0.231944114 0.619458854 
0 -0.239518121 0.612960935 
0 -0.247092262 0.606462896 
0 -0.254666537 0.599964797 
0 -0.262240529 0.593466878 
0 -0.26981467 0.586968899 
0 -0.277388811 0.58047086 
0 -0.284962952 0.573972821 
0 -0.292536974 0.567474961 
0 -0.299149036 0.560026705 
0 -0.30555132 0.552371442 
0 -0.311953604 0.544716179 
0 -0.318355858 0.537060857 
0 -0.324758023 0.529405713 
0 -0.331160396 0.521750331 
0 -0.337562561 0.514095187 
0 -0.343964726 0.506440043 
0 -0.350367099 0.498784602 
0 -0.356164038 0.490695387 
0 -0.361361325 0.482176036 
0 -0.366558731 0.473656535 
0 -0.371756017 0.465137184 
0 -0.376953304 0.456617862 
0 -0.38215068 0.448098361 
0 -0.387347877 0.439579189 
0 -0.392545164 0.431059837 
0 -0.39774254 0.422540337 
0 -0.402939826 0.414021015 
0 -0.40730235 0.405066907 
0 -0.411303997 0.395924717 
0 -0.415305674 0.386782497 
0 -0.419307292 0.377640486 
0 -0.423308969 0.368498266 
0 -0.427310556 0.359356254 
0 -0.431312144 0.350214243 
0 -0.43531391 0.341071844 
0 -0.439315498 0.331929833 
0 -0.443317175 0.322787642 
0 -0.446787834 0.313451618 
0 -0.449619114 0.303882182 
0 -0.452450454 0.294312596 
0 -0.455281705 0.28474319 
0 -0.458112985 0.275173753 
0 -0.460944384 0.26560396 
0 -0.463775635 0.256034553 
0 -0.466606915 0.246465132 
0 -0.469438255 0.236895531 
0 -0.472269535 0.22732611 
0 -0.475100785 0.217756689 
0 -0.476960361 0.20796068 
0 -0.478647053 0.198124886 
0 -0.480333775 0.188288897 
0 -0.482020527 0.178452685 
0 -0.483707219 0.168616891 
0 -0.485393941 0.158780903 
0 -0.487080663 0.148944914 
0 -0.488767385 0.139108926 
0 -0.490454078 0.129273117 
0 -0.49214083 0.119436927 
0 -0.493827552 0.109600931 
0 -0.494398773 0.099638328 
0 -0.494958878 0.0896745324 
0 -0.495519012 0.0797107443 
0 -0.496079147 0.0697467476 
0 -0.496639252 0.0597829521 
0 -0.497199386 0.0498191603 
0 -0.497759521 0.0398551598 
0 -0.498319626 0.0298915803 
0 -0.498879761 0.0199277848 
0 -0.499439865 0.00996378064 
0 -0.5 -8.34741609e-09 
0 -0.499439865 -0.00996379927 
0 -0.498879761 -0.0199277978 
0 -0.498319626 -0.0298915897 
0 -0.497759521 -0.039855171 
0 -0.497199386 -0.0498191714 
0 -0.496639252 -0.0597829632 
0 -0.496079147 -0.0697467551 
0 -0.495519012 -0.0797107518 
0 -0.494958878 -0.0896745473 
0 -0.494398773 -0.0996383354 
0 -0.493827552 -0.109600939 
0 -0.49214083 -0.119436935 
0 -0.490454108 -0.129272923 
0 -0.488767385 -0.139108926 
0 -0.487080663 -0.148944914 
0 -0.485393941 -0.158780918 
0 -0.483707219 -0.168616906 
0 -0.482020527 -0.1784527 
0 -0.480333775 -0.188288897 
0 -0.478647053 -0.1981249 
0 -0.476960361 -0.207960695 
0 -0.475100785 -0.217756718 
0 -0.472269565 -0.227325961 
0 -0.469438225 -0.236895591 
0 -0.466606885 -0.246465236 
0 -0.463775665 -0.256034464 
0 -0.460944325 -0.265604109 
0 -0.458112985 -0.275173753 
0 -0.455281764 -0.284742981 
0 -0.452450424 -0.294312626 
0 -0.449619085 -0.303882271 
0 -0.446787834 -0.313451499 
0 -0.443317145 -0.322787732 
0 -0.439315438 -0.331929952 
0 -0.435313761 -0.341072142 
0 -0.431312084 -0.350214332 
0 -0.427310586 -0.359356195 
0 -0.423308909 -0.368498385 
0 -0.419307232 -0.377640575 
0 -0.415305555 -0.386782765 
0 -0.411304027 -0.395924628 
0 -0.40730235 -0.405066818 
0 -0.402939767 -0.414021105 
0 -0.39774248 -0.422540456 
0 -0.392545193 -0.431059778 
0 -0.387347907 -0.439579129 
0 -0.38215062 -0.448098481 
0 -0.376953125 -0.45661813 
0 -0.371756017 -0.465137154 
0 -0.366558731 -0.473656476 
0 -0.361361265 -0.482176155 
0 -0.356163979 -0.490695477 
0 -0.350367039 -0.498784721 
0 -0.343964756 -0.506439984 
0 -0.337562501 -0.514095306 
0 -0.331160426 -0.521750271 
0 -0.324757934 -0.529405832 
0 -0.318355888 -0.537060857 
0 -0.311953604 -0.54471612 
0 -0.30555135 -0.552371442 
0 -0.299149066 -0.560026705 
0 -0.292536885 -0.56747508 
0 -0.284962773 -0.57397306 
0 -0.277388901 -0.5804708 
0 -0.269814551 -0.586969018 
0 -0.26224041 -0.593466997 
0 -0.254666299 -0.599964976 
0 -0.247092187 -0.606463015 
0 -0.239518076 -0.612960994 
0 -0.23194395 -0.619458973 
0 -0.22400254 -0.625440001 
0 -0.215369731 -0.630446196 
0 -0.206736654 -0.635452509 
0 -0.198103577 -0.640458822 
0 -0.189470768 -0.645464957 
0 -0.180837691 -0.65047127 
0 -0.172204614 -0.655477643 
0 -0.163571537 -0.660483956 
0 -0.154938728 -0.665490091 
0 -0.145520061 -0.668760717 
0 -0.136060774 -0.671940029 
0 -0.126601189 -0.675119519 
0 -0.117141619 -0.67829895 
0 -0.107682034 -0.681478441 
0 -0.0982224569 -0.684657872 
0 -0.0887628794 -0.687837362 
0 -0.079303585 -0.691016734 
0 -0.0694365948 -0.692349315 
0 -0.0595171079 -0.693442285 
0 -0.0495976284 -0.694535196 
0 -0.0396781415 -0.695628166 
0 -0.0297586583 -0.696721137 
0 -0.019839175 -0.697814047 
0 -0.00991939753 -0.698907018 
0 8.74227766e-08 -0.699999988 
