ply
format ascii 1.0
comment created by gply, a Houdini tool.
comment converted from .[b]geo
comment for more information about Houdini, try:
comment www.sidefx.com
element vertex 1244
property float x
property float y
property float z
element face 0
property list uchar int vertex_indices
end_header
-0.376232803 -0.133721933 -0.400000006 
-0.375850141 -0.134645715 -0.400000006 
-0.375467509 -0.135569498 -0.400000006 
-0.375084907 -0.136493176 -0.400000006 
-0.374702275 -0.137416959 -0.400000006 
-0.374319613 -0.138340741 -0.400000006 
-0.373936981 -0.139264524 -0.400000006 
-0.373554349 -0.140188307 -0.400000006 
-0.373171747 -0.14111197 -0.400000006 
-0.372789085 -0.142035753 -0.400000006 
-0.372406393 -0.142959639 -0.400000006 
-0.372023821 -0.143883318 -0.400000006 
-0.371641219 -0.144806981 -0.400000006 
-0.371258527 -0.145730883 -0.400000006 
-0.370875865 -0.146654665 -0.400000006 
-0.370493233 -0.147578448 -0.400000006 
-0.370110631 -0.148502111 -0.400000006 
-0.369727999 -0.149425894 -0.400000006 
-0.369345367 -0.150349677 -0.400000006 
-0.368962705 -0.151273459 -0.400000006 
-0.368580073 -0.152197242 -0.400000006 
-0.368197411 -0.153121024 -0.400000006 
-0.367814839 -0.154044688 -0.400000006 
-0.367432177 -0.15496847 -0.400000006 
-0.367049485 -0.155892372 -0.400000006 
-0.366666883 -0.156816036 -0.400000006 
-0.366284251 -0.157739818 -0.400000006 
-0.365901619 -0.158663601 -0.400000006 
-0.365518957 -0.159587383 -0.400000006 
-0.365136325 -0.160511166 -0.400000006 
-0.364753723 -0.161434829 -0.400000006 
-0.364371091 -0.162358612 -0.400000006 
-0.363988429 -0.163282394 -0.400000006 
-0.363605797 -0.164206177 -0.400000006 
-0.363223106 -0.165130079 -0.400000006 
-0.362840503 -0.166053742 -0.400000006 
-0.362457901 -0.16697742 -0.400000006 
-0.362075269 -0.167901203 -0.400000006 
-0.361692578 -0.16882509 -0.400000006 
-0.361309975 -0.169748768 -0.400000006 
-0.360927343 -0.170672536 -0.400000006 
-0.360544711 -0.171596318 -0.400000006 
-0.36016205 -0.172520101 -0.400000006 
-0.359779418 -0.173443884 -0.400000006 
-0.359396815 -0.174367562 -0.400000006 
-0.359014183 -0.175291345 -0.400000006 
-0.358631521 -0.176215127 -0.400000006 
-0.358248889 -0.17713891 -0.400000006 
-0.357866198 -0.178062797 -0.400000006 
-0.357483596 -0.178986475 -0.400000006 
-0.357100993 -0.179910138 -0.400000006 
-0.356718361 -0.180833921 -0.400000006 
-0.356311202 -0.18174535 -0.400000006 
-0.355788827 -0.182597801 -0.400000006 
-0.355266392 -0.183450356 -0.400000006 
-0.354743958 -0.184302896 -0.400000006 
-0.354221493 -0.185155451 -0.400000006 
-0.353699058 -0.186008006 -0.400000006 
-0.353176683 -0.186860457 -0.400000006 
-0.352654189 -0.187713102 -0.400000006 
-0.352131784 -0.188565552 -0.400000006 
-0.351609349 -0.189418107 -0.400000006 
-0.351086855 -0.190270752 -0.400000006 
-0.35056448 -0.191123202 -0.400000006 
-0.350042075 -0.191975653 -0.400000006 
-0.34951964 -0.192828193 -0.400000006 
-0.348997146 -0.193680853 -0.400000006 
-0.348474771 -0.194533303 -0.400000006 
-0.347952306 -0.195385844 -0.400000006 
-0.347429872 -0.196238399 -0.400000006 
-0.346907437 -0.197090954 -0.400000006 
-0.346384972 -0.197943494 -0.400000006 
-0.345862597 -0.198795944 -0.400000006 
-0.345340103 -0.199648589 -0.400000006 
-0.344817728 -0.20050104 -0.400000006 
-0.344295263 -0.201353595 -0.400000006 
-0.343772769 -0.202206254 -0.400000006 
-0.343250394 -0.20305869 -0.400000006 
-0.342728019 -0.203911141 -0.400000006 
-0.342205554 -0.204763696 -0.400000006 
-0.34168306 -0.20561634 -0.400000006 
-0.341160685 -0.206468791 -0.400000006 
-0.34063822 -0.207321346 -0.400000006 
-0.340115786 -0.208173886 -0.400000006 
-0.339593351 -0.209026441 -0.400000006 
-0.339070916 -0.209878996 -0.400000006 
-0.338548511 -0.210731447 -0.400000006 
-0.338026017 -0.211584091 -0.400000006 
-0.337503642 -0.212436542 -0.400000006 
-0.336981207 -0.213289082 -0.400000006 
-0.336458683 -0.214141741 -0.400000006 
-0.335936308 -0.214994192 -0.400000006 
-0.335413873 -0.215846747 -0.400000006 
-0.334891498 -0.216699183 -0.400000006 
-0.334368974 -0.217551842 -0.400000006 
-0.333846599 -0.218404293 -0.400000006 
-0.333324164 -0.219256833 -0.400000006 
-0.3328017 -0.220109388 -0.400000006 
-0.332279265 -0.220961928 -0.400000006 
-0.33175683 -0.221814483 -0.400000006 
-0.331234455 -0.222666934 -0.400000006 
-0.330711931 -0.223519593 -0.400000006 
-0.330189556 -0.224372029 -0.400000006 
-0.329667121 -0.225224584 -0.400000006 
-0.329144597 -0.226077229 -0.400000006 
-0.328622222 -0.22692968 -0.400000006 
-0.328099787 -0.227782235 -0.400000006 
-0.327577412 -0.228634685 -0.400000006 
-0.327054888 -0.22948733 -0.400000006 
-0.326532513 -0.23033978 -0.400000006 
-0.326010078 -0.231192335 -0.400000006 
-0.325487643 -0.232044876 -0.400000006 
-0.324965179 -0.232897431 -0.400000006 
-0.324442744 -0.233749986 -0.400000006 
-0.323920369 -0.234602422 -0.400000006 
-0.323347092 -0.2354182 -0.400000006 
-0.322697788 -0.236178428 -0.400000006 
-0.322048426 -0.23693876 -0.400000006 
-0.321398973 -0.237699181 -0.400000006 
-0.32074967 -0.238459408 -0.400000006 
-0.320100278 -0.23921974 -0.400000006 
-0.319450974 -0.239979967 -0.400000006 
-0.318801522 -0.240740389 -0.400000006 
-0.318152219 -0.241500616 -0.400000006 
-0.317502826 -0.242260948 -0.400000006 
-0.316853374 -0.243021354 -0.400000006 
-0.316204071 -0.243781596 -0.400000006 
-0.315554708 -0.244541913 -0.400000006 
-0.314905405 -0.245302156 -0.400000006 
-0.314255953 -0.246062577 -0.400000006 
-0.31360665 -0.246822804 -0.400000006 
-0.312957257 -0.247583136 -0.400000006 
-0.312307805 -0.248343542 -0.400000006 
-0.311658502 -0.249103785 -0.400000006 
-0.311009109 -0.249864101 -0.400000006 
-0.310359806 -0.250624329 -0.400000006 
-0.309710354 -0.251384765 -0.400000006 
-0.30906105 -0.252144992 -0.400000006 
-0.308411688 -0.252905309 -0.400000006 
-0.307762206 -0.253665745 -0.400000006 
-0.307112932 -0.254425973 -0.400000006 
-0.30646354 -0.25518629 -0.400000006 
-0.305814236 -0.255946517 -0.400000006 
-0.305164784 -0.256706953 -0.400000006 
-0.304515481 -0.25746718 -0.400000006 
-0.303866088 -0.258227497 -0.400000006 
-0.303216636 -0.258987904 -0.400000006 
-0.302567333 -0.259748161 -0.400000006 
-0.30191797 -0.260508478 -0.400000006 
-0.301268667 -0.261268705 -0.400000006 
-0.300619185 -0.262029111 -0.400000006 
-0.299969912 -0.262789369 -0.400000006 
-0.299320519 -0.263549685 -0.400000006 
-0.298671067 -0.264310092 -0.400000006 
-0.298021764 -0.265070349 -0.400000006 
-0.297372371 -0.265830666 -0.400000006 
-0.296723068 -0.266590893 -0.400000006 
-0.296073616 -0.2673513 -0.400000006 
-0.295424253 -0.268111646 -0.400000006 
-0.29477495 -0.268871874 -0.400000006 
-0.294125497 -0.26963228 -0.400000006 
-0.293476164 -0.270392537 -0.400000006 
-0.292826802 -0.271152854 -0.400000006 
-0.292177498 -0.271913081 -0.400000006 
-0.291528046 -0.272673488 -0.400000006 
-0.290878743 -0.273433745 -0.400000006 
-0.29022935 -0.274194062 -0.400000006 
-0.289579898 -0.274954468 -0.400000006 
-0.288930595 -0.275714695 -0.400000006 
-0.288281232 -0.276475042 -0.400000006 
-0.287631929 -0.27723527 -0.400000006 
-0.286982477 -0.277995676 -0.400000006 
-0.286333084 -0.278756022 -0.400000006 
-0.285683781 -0.27951625 -0.400000006 
-0.285034329 -0.280276656 -0.400000006 
-0.284385026 -0.281036884 -0.400000006 
-0.283735633 -0.28179723 -0.400000006 
-0.28308627 -0.282557547 -0.400000006 
-0.282367557 -0.283248544 -0.400000006 
-0.28160733 -0.283897847 -0.400000006 
-0.280846983 -0.28454721 -0.400000006 
-0.280086577 -0.285196692 -0.400000006 
-0.279326349 -0.285845965 -0.400000006 
-0.278566003 -0.286495358 -0.400000006 
-0.277805775 -0.287144661 -0.400000006 
-0.277045369 -0.287794113 -0.400000006 
-0.276285052 -0.288443506 -0.400000006 
-0.275524795 -0.289092809 -0.400000006 
-0.274764389 -0.289742261 -0.400000006 
-0.274004161 -0.290391564 -0.400000006 
-0.273243815 -0.291040927 -0.400000006 
-0.272483498 -0.29169032 -0.400000006 
-0.271723181 -0.292339683 -0.400000006 
-0.270962954 -0.292988986 -0.400000006 
-0.270202607 -0.293638378 -0.400000006 
-0.269442201 -0.294287831 -0.400000006 
-0.268681973 -0.294937134 -0.400000006 
-0.267921627 -0.295586497 -0.400000006 
-0.267161399 -0.2962358 -0.400000006 
-0.266400993 -0.296885282 -0.400000006 
-0.265640676 -0.297534645 -0.400000006 
-0.264880419 -0.298183948 -0.400000006 
-0.264120013 -0.2988334 -0.400000006 
-0.263359785 -0.299482703 -0.400000006 
-0.262599438 -0.300132096 -0.400000006 
-0.261839122 -0.300781459 -0.400000006 
-0.261078805 -0.301430851 -0.400000006 
-0.260318458 -0.302080214 -0.400000006 
-0.259558231 -0.302729517 -0.400000006 
-0.258797824 -0.303378969 -0.400000006 
-0.258037508 -0.304028362 -0.400000006 
-0.25727725 -0.304677665 -0.400000006 
-0.256517023 -0.305326968 -0.400000006 
-0.255756617 -0.305976421 -0.400000006 
-0.2549963 -0.306625813 -0.400000006 
-0.254236042 -0.307275116 -0.400000006 
-0.253475636 -0.307924569 -0.400000006 
-0.252715409 -0.308573872 -0.400000006 
-0.251955062 -0.309223235 -0.400000006 
-0.251194745 -0.309872627 -0.400000006 
-0.250434428 -0.31052199 -0.400000006 
-0.249674097 -0.311171383 -0.400000006 
-0.248913854 -0.311820686 -0.400000006 
-0.248153538 -0.312470049 -0.400000006 
-0.247393116 -0.313119531 -0.400000006 
-0.246632889 -0.313768804 -0.400000006 
-0.245872647 -0.314418107 -0.400000006 
-0.24511224 -0.315067589 -0.400000006 
-0.244351909 -0.315716952 -0.400000006 
-0.243591666 -0.316366255 -0.400000006 
-0.24283126 -0.317015707 -0.400000006 
-0.242071018 -0.317665011 -0.400000006 
-0.241310701 -0.318314403 -0.400000006 
-0.240550369 -0.318963766 -0.400000006 
-0.239790052 -0.319613159 -0.400000006 
-0.23902972 -0.320262522 -0.400000006 
-0.238269478 -0.320911825 -0.400000006 
-0.237509161 -0.321561217 -0.400000006 
-0.23674874 -0.32221067 -0.400000006 
-0.235988498 -0.322859973 -0.400000006 
-0.23522827 -0.323509276 -0.400000006 
-0.234389484 -0.324050844 -0.400000006 
-0.233536929 -0.324573308 -0.400000006 
-0.232684374 -0.325095743 -0.400000006 
-0.231831834 -0.325618178 -0.400000006 
-0.230979279 -0.326140612 -0.400000006 
-0.230126932 -0.326662928 -0.400000006 
-0.229274377 -0.327185392 -0.400000006 
-0.228421733 -0.327707887 -0.400000006 
-0.227569178 -0.328230321 -0.400000006 
-0.226716727 -0.328752726 -0.400000006 
-0.225864187 -0.329275161 -0.400000006 
-0.225011528 -0.329797655 -0.400000006 
-0.224158973 -0.33032012 -0.400000006 
-0.223306537 -0.330842495 -0.400000006 
-0.222454086 -0.33136487 -0.400000006 
-0.221601531 -0.331887305 -0.400000006 
-0.220748976 -0.332409739 -0.400000006 
-0.219896331 -0.332932264 -0.400000006 
-0.219043881 -0.333454639 -0.400000006 
-0.218191326 -0.333977073 -0.400000006 
-0.217338786 -0.334499538 -0.400000006 
-0.216486126 -0.335022032 -0.400000006 
-0.215633675 -0.335544407 -0.400000006 
-0.214781135 -0.336066842 -0.400000006 
-0.213928685 -0.336589247 -0.400000006 
-0.21307613 -0.337111682 -0.400000006 
-0.212223589 -0.337634116 -0.400000006 
-0.211371139 -0.338156492 -0.400000006 
-0.210518479 -0.338679016 -0.400000006 
-0.209665924 -0.33920145 -0.400000006 
-0.208813384 -0.339723885 -0.400000006 
-0.207960829 -0.34024635 -0.400000006 
-0.207108289 -0.340768784 -0.400000006 
-0.206255943 -0.3412911 -0.400000006 
-0.205403388 -0.341813534 -0.400000006 
-0.204550728 -0.342336059 -0.400000006 
-0.203698188 -0.342858493 -0.400000006 
-0.202845737 -0.343380868 -0.400000006 
-0.201993182 -0.343903303 -0.400000006 
-0.201140538 -0.344425827 -0.400000006 
-0.200287983 -0.344948262 -0.400000006 
-0.199435532 -0.345470637 -0.400000006 
-0.198582888 -0.345993161 -0.400000006 
-0.197730541 -0.346515477 -0.400000006 
-0.196877986 -0.347037911 -0.400000006 
-0.196025431 -0.347560346 -0.400000006 
-0.195172876 -0.348082781 -0.400000006 
-0.194320336 -0.348605245 -0.400000006 
-0.193467781 -0.34912768 -0.400000006 
-0.192615137 -0.349650174 -0.400000006 
-0.191762686 -0.350172579 -0.400000006 
-0.190910131 -0.350695014 -0.400000006 
-0.190057784 -0.35121733 -0.400000006 
-0.18920514 -0.351739824 -0.400000006 
-0.188352585 -0.352262288 -0.400000006 
-0.187500134 -0.352784663 -0.400000006 
-0.18664749 -0.353307158 -0.400000006 
-0.185794935 -0.353829622 -0.400000006 
-0.184942394 -0.354352057 -0.400000006 
-0.184089929 -0.354874432 -0.400000006 
-0.183237284 -0.355396926 -0.400000006 
-0.182384729 -0.355919391 -0.400000006 
-0.181527063 -0.356431246 -0.400000006 
-0.180603176 -0.356813937 -0.400000006 
-0.179679394 -0.357196569 -0.400000006 
-0.17875573 -0.357579172 -0.400000006 
-0.177831843 -0.357961863 -0.400000006 
-0.176908061 -0.358344495 -0.400000006 
-0.175984278 -0.358727157 -0.400000006 
-0.175060615 -0.359109759 -0.400000006 
-0.174136728 -0.359492421 -0.400000006 
-0.173213169 -0.359874994 -0.400000006 
-0.172289386 -0.360257626 -0.400000006 
-0.171365499 -0.360640317 -0.400000006 
-0.170441836 -0.361022919 -0.400000006 
-0.169518054 -0.361405551 -0.400000006 
-0.168594167 -0.361788243 -0.400000006 
-0.167670384 -0.362170875 -0.400000006 
-0.166746721 -0.362553477 -0.400000006 
-0.165822938 -0.362936109 -0.400000006 
-0.164899275 -0.363318712 -0.400000006 
-0.163975492 -0.363701344 -0.400000006 
-0.16305171 -0.364084005 -0.400000006 
-0.162127927 -0.364466637 -0.400000006 
-0.161204159 -0.364849269 -0.400000006 
-0.160280377 -0.365231931 -0.400000006 
-0.15935649 -0.365614593 -0.400000006 
-0.158432811 -0.365997195 -0.400000006 
-0.157509029 -0.366379857 -0.400000006 
-0.156585261 -0.366762489 -0.400000006 
-0.155661583 -0.367145091 -0.400000006 
-0.154737815 -0.367527723 -0.400000006 
-0.153814033 -0.367910355 -0.400000006 
-0.15289025 -0.368293017 -0.400000006 
-0.151966482 -0.368675649 -0.400000006 
-0.1510427 -0.369058281 -0.400000006 
-0.150118798 -0.369440973 -0.400000006 
-0.149195135 -0.369823575 -0.400000006 
-0.148271352 -0.370206207 -0.400000006 
-0.147347808 -0.370588779 -0.400000006 
-0.146423906 -0.370971441 -0.400000006 
-0.145500124 -0.371354103 -0.400000006 
-0.14457646 -0.371736705 -0.400000006 
-0.143652573 -0.372119367 -0.400000006 
-0.142728791 -0.372502029 -0.400000006 
-0.141805023 -0.372884661 -0.400000006 
-0.14088124 -0.373267293 -0.400000006 
-0.139957458 -0.373649955 -0.400000006 
-0.139033675 -0.374032587 -0.400000006 
-0.138110131 -0.374415129 -0.400000006 
-0.137186229 -0.374797821 -0.400000006 
-0.136262566 -0.375180423 -0.400000006 
-0.135338783 -0.375563055 -0.400000006 
-0.134414896 -0.375945747 -0.400000006 
-0.133491114 -0.376328379 -0.400000006 
-0.13256745 -0.376710981 -0.400000006 
-0.131643564 -0.377093673 -0.400000006 
-0.130719781 -0.377476305 -0.400000006 
-0.129796222 -0.377858877 -0.400000006 
-0.128872335 -0.378241539 -0.400000006 
-0.127948552 -0.378624201 -0.400000006 
-0.127024889 -0.379006803 -0.400000006 
-0.126101106 -0.379389435 -0.400000006 
-0.12517722 -0.379772127 -0.400000006 
-0.124253437 -0.380154759 -0.400000006 
-0.12331523 -0.380492598 -0.400000006 
-0.122342847 -0.380726039 -0.400000006 
-0.121370576 -0.380959481 -0.400000006 
-0.120398544 -0.381192833 -0.400000006 
-0.11942628 -0.381426245 -0.400000006 
-0.118454009 -0.381659687 -0.400000006 
-0.117481746 -0.381893098 -0.400000006 
-0.116509475 -0.38212651 -0.400000006 
-0.115537092 -0.382359952 -0.400000006 
-0.11456494 -0.382593364 -0.400000006 
-0.113592677 -0.382826775 -0.400000006 
-0.112620413 -0.383060187 -0.400000006 
-0.111648262 -0.383293599 -0.400000006 
-0.110675991 -0.383527011 -0.400000006 
-0.109703727 -0.383760422 -0.400000006 
-0.108731456 -0.383993864 -0.400000006 
-0.107759193 -0.384227276 -0.400000006 
-0.106786922 -0.384460688 -0.400000006 
-0.10581477 -0.384694099 -0.400000006 
-0.104842395 -0.384927541 -0.400000006 
-0.103870124 -0.385160953 -0.400000006 
-0.10289786 -0.385394365 -0.400000006 
-0.101925708 -0.385627776 -0.400000006 
-0.100953445 -0.385861188 -0.400000006 
-0.0999812931 -0.38609457 -0.400000006 
-0.0990090221 -0.386328012 -0.400000006 
-0.0980366394 -0.386561453 -0.400000006 
-0.0970643759 -0.386794865 -0.400000006 
-0.0960922241 -0.387028277 -0.400000006 
-0.0951198414 -0.387261719 -0.400000006 
-0.0941475704 -0.38749513 -0.400000006 
-0.0931755379 -0.387728512 -0.400000006 
-0.0922032744 -0.387961924 -0.400000006 
-0.0912310034 -0.388195336 -0.400000006 
-0.0902587399 -0.388428748 -0.400000006 
-0.0892864764 -0.388662189 -0.400000006 
-0.0883140862 -0.388895631 -0.400000006 
-0.0873419344 -0.389129013 -0.400000006 
-0.0863696709 -0.389362454 -0.400000006 
-0.0853974074 -0.389595866 -0.400000006 
-0.0844252557 -0.389829248 -0.400000006 
-0.0834529847 -0.39006269 -0.400000006 
-0.0824807212 -0.390296102 -0.400000006 
-0.0815084577 -0.390529513 -0.400000006 
-0.0805361867 -0.390762925 -0.400000006 
-0.0795639157 -0.390996367 -0.400000006 
-0.0785916522 -0.391229779 -0.400000006 
-0.0776193887 -0.39146319 -0.400000006 
-0.0766471177 -0.391696632 -0.400000006 
-0.0756748468 -0.391930044 -0.400000006 
-0.0747027025 -0.392163426 -0.400000006 
-0.0737304389 -0.392396867 -0.400000006 
-0.0727582872 -0.392630249 -0.400000006 
-0.0717860162 -0.392863661 -0.400000006 
-0.0708136335 -0.393097103 -0.400000006 
-0.06984137 -0.393330544 -0.400000006 
-0.0688692182 -0.393563926 -0.400000006 
-0.0678968355 -0.393797368 -0.400000006 
-0.066924572 -0.394030809 -0.400000006 
-0.065952532 -0.394264162 -0.400000006 
-0.0649802685 -0.394497573 -0.400000006 
-0.0640079975 -0.394731015 -0.400000006 
-0.063035734 -0.394964427 -0.400000006 
-0.062050581 -0.395116508 -0.400000006 
-0.0610536523 -0.395194948 -0.400000006 
-0.0600569583 -0.395273417 -0.400000006 
-0.0590601452 -0.395351857 -0.400000006 
-0.0580633357 -0.395430297 -0.400000006 
-0.0570664033 -0.395508766 -0.400000006 
-0.0560698286 -0.395587206 -0.400000006 
-0.0550730191 -0.395665646 -0.400000006 
-0.0540762059 -0.395744085 -0.400000006 
-0.0530793928 -0.395822555 -0.400000006 
-0.0520825833 -0.395900995 -0.400000006 
-0.0510857701 -0.395979464 -0.400000006 
-0.050088957 -0.396057904 -0.400000006 
-0.0490921438 -0.396136343 -0.400000006 
-0.0480953343 -0.396214813 -0.400000006 
-0.0470986404 -0.396293253 -0.400000006 
-0.0461018309 -0.396371692 -0.400000006 
-0.0451051369 -0.396450132 -0.400000006 
-0.0441083238 -0.396528602 -0.400000006 
-0.0431113914 -0.396607041 -0.400000006 
-0.0421145819 -0.396685511 -0.400000006 
-0.0411178917 -0.396763951 -0.400000006 
-0.0401209593 -0.39684242 -0.400000006 
-0.0391241461 -0.39692086 -0.400000006 
-0.0381273329 -0.3969993 -0.400000006 
-0.0371307582 -0.397077739 -0.400000006 
-0.0361339487 -0.397156179 -0.400000006 
-0.0351371393 -0.397234648 -0.400000006 
-0.0341403261 -0.397313088 -0.400000006 
-0.0331433937 -0.397391558 -0.400000006 
-0.0321466997 -0.397469997 -0.400000006 
-0.0311498903 -0.397548437 -0.400000006 
-0.0301530771 -0.397626907 -0.400000006 
-0.0291561447 -0.397705346 -0.400000006 
-0.0281595737 -0.397783786 -0.400000006 
-0.0271627605 -0.397862256 -0.400000006 
-0.0261659473 -0.397940695 -0.400000006 
-0.0251691379 -0.398019135 -0.400000006 
-0.0241723247 -0.398097605 -0.400000006 
-0.0231755115 -0.398176044 -0.400000006 
-0.0221787021 -0.398254484 -0.400000006 
-0.0211818889 -0.398332953 -0.400000006 
-0.0201850757 -0.398411393 -0.400000006 
-0.0191883855 -0.398489833 -0.400000006 
-0.0181915723 -0.398568302 -0.400000006 
-0.0171948783 -0.398646742 -0.400000006 
-0.0161980689 -0.398725182 -0.400000006 
-0.0152011365 -0.398803651 -0.400000006 
-0.0142043233 -0.398882091 -0.400000006 
-0.013207633 -0.398960531 -0.400000006 
-0.0122107007 -0.399039 -0.400000006 
-0.0112138875 -0.39911744 -0.400000006 
-0.010217078 -0.39919591 -0.400000006 
-0.00922050327 -0.399274319 -0.400000006 
-0.00822369009 -0.399352789 -0.400000006 
-0.00722688064 -0.399431229 -0.400000006 
-0.00623006746 -0.399509698 -0.400000006 
-0.00523325428 -0.399588138 -0.400000006 
-0.00423644483 -0.399666578 -0.400000006 
-0.00323963165 -0.399745047 -0.400000006 
-0.00224281847 -0.399823487 -0.400000006 
-0.00124588981 -0.399901956 -0.400000006 
-0.000249315053 -0.399980396 -0.400000006 
0.000747494225 -0.399941176 -0.400000006 
0.00174430595 -0.399862736 -0.400000006 
0.0027411175 -0.399784267 -0.400000006 
0.00373792928 -0.399705827 -0.400000006 
0.00473474106 -0.399627388 -0.400000006 
0.00573155284 -0.399548918 -0.400000006 
0.00672836462 -0.399470478 -0.400000006 
0.00772517594 -0.399392009 -0.400000006 
0.00872198772 -0.399313569 -0.400000006 
0.00971867982 -0.399235129 -0.400000006 
0.0107153729 -0.39915669 -0.400000006 
0.0117121842 -0.39907822 -0.400000006 
0.0127091156 -0.39899978 -0.400000006 
0.0137059269 -0.398921311 -0.400000006 
0.0147026191 -0.398842871 -0.400000006 
0.0156995524 -0.398764431 -0.400000006 
0.0166963637 -0.398685962 -0.400000006 
0.017693175 -0.398607522 -0.400000006 
0.0186897479 -0.398529083 -0.400000006 
0.0196865592 -0.398450643 -0.400000006 
0.0206833705 -0.398372173 -0.400000006 
0.0216801837 -0.398293734 -0.400000006 
0.022676995 -0.398215294 -0.400000006 
0.0236738063 -0.398136824 -0.400000006 
0.0246706177 -0.398058385 -0.400000006 
0.0256674308 -0.397979915 -0.400000006 
0.0266643614 -0.397901475 -0.400000006 
0.0276610535 -0.397823036 -0.400000006 
0.0286577456 -0.397744596 -0.400000006 
0.0296544377 -0.397666156 -0.400000006 
0.0306513701 -0.397587687 -0.400000006 
0.0316481777 -0.397509217 -0.400000006 
0.0326449908 -0.397430778 -0.400000006 
0.033641804 -0.397352338 -0.400000006 
0.0346386135 -0.397273868 -0.400000006 
0.0356354266 -0.397195429 -0.400000006 
0.0366322361 -0.397116989 -0.400000006 
0.0376289301 -0.397038519 -0.400000006 
0.038625624 -0.39696008 -0.400000006 
0.0396224335 -0.39688164 -0.400000006 
0.0406193659 -0.39680317 -0.400000006 
0.0416161753 -0.396724731 -0.400000006 
0.0426128693 -0.396646291 -0.400000006 
0.0436096825 -0.396567822 -0.400000006 
0.0446066111 -0.396489382 -0.400000006 
0.0456034243 -0.396410912 -0.400000006 
0.0466001146 -0.396332473 -0.400000006 
0.0475969277 -0.396254033 -0.400000006 
0.0485936217 -0.396175593 -0.400000006 
0.0495904312 -0.396097153 -0.400000006 
0.0505872443 -0.396018684 -0.400000006 
0.0515840538 -0.395940244 -0.400000006 
0.052580867 -0.395861775 -0.400000006 
0.0535776801 -0.395783335 -0.400000006 
0.0545746088 -0.395704865 -0.400000006 
0.0555713028 -0.395626426 -0.400000006 
0.056567993 -0.395547986 -0.400000006 
0.057564687 -0.395469546 -0.400000006 
0.0585616194 -0.395391077 -0.400000006 
0.0595584288 -0.395312637 -0.400000006 
0.060555242 -0.395234197 -0.400000006 
0.0615520515 -0.395155728 -0.400000006 
0.0625488684 -0.395077288 -0.400000006 
0.0635217503 -0.394847751 -0.400000006 
0.0644940138 -0.394614309 -0.400000006 
0.0654661655 -0.394380927 -0.400000006 
0.0664383173 -0.394147545 -0.400000006 
0.0674105883 -0.393914104 -0.400000006 
0.068382971 -0.393680662 -0.400000006 
0.0693552345 -0.39344725 -0.400000006 
0.0703273863 -0.393213868 -0.400000006 
0.0712996572 -0.392980427 -0.400000006 
0.0722720399 -0.392746985 -0.400000006 
0.0732443035 -0.392513573 -0.400000006 
0.0742164552 -0.392280161 -0.400000006 
0.075188607 -0.392046779 -0.400000006 
0.0761608705 -0.391813368 -0.400000006 
0.0771331415 -0.391579926 -0.400000006 
0.078105405 -0.391346514 -0.400000006 
0.0790776759 -0.391113102 -0.400000006 
0.0800499395 -0.390879691 -0.400000006 
0.0810222104 -0.390646249 -0.400000006 
0.0819944739 -0.390412837 -0.400000006 
0.0829667449 -0.390179425 -0.400000006 
0.0839388967 -0.389946014 -0.400000006 
0.084911041 -0.389712632 -0.400000006 
0.0858833119 -0.38947922 -0.400000006 
0.0868556947 -0.389245749 -0.400000006 
0.0878279582 -0.389012337 -0.400000006 
0.0888001099 -0.388778955 -0.400000006 
0.0897723809 -0.388545513 -0.400000006 
0.0907447636 -0.388312072 -0.400000006 
0.0917170271 -0.38807866 -0.400000006 
0.0926891789 -0.387845278 -0.400000006 
0.0936613306 -0.387611866 -0.400000006 
0.0946335942 -0.387378454 -0.400000006 
0.0956058651 -0.387145042 -0.400000006 
0.0965781361 -0.386911601 -0.400000006 
0.0975503996 -0.386678189 -0.400000006 
0.0985226631 -0.386444777 -0.400000006 
0.0994949341 -0.386211336 -0.400000006 
0.100467205 -0.385977924 -0.400000006 
0.101439469 -0.385744512 -0.400000006 
0.102411613 -0.3855111 -0.400000006 
0.103383765 -0.385277718 -0.400000006 
0.104356036 -0.385044307 -0.400000006 
0.105328418 -0.384810865 -0.400000006 
0.106300682 -0.384577423 -0.400000006 
0.107272834 -0.384344041 -0.400000006 
0.108245224 -0.3841106 -0.400000006 
0.109217487 -0.383877158 -0.400000006 
0.110189751 -0.383643746 -0.400000006 
0.111161903 -0.383410364 -0.400000006 
0.112134054 -0.383176953 -0.400000006 
0.113106325 -0.382943541 -0.400000006 
0.114078589 -0.382710129 -0.400000006 
0.115050852 -0.382476717 -0.400000006 
0.116023242 -0.382243246 -0.400000006 
0.116995506 -0.382009834 -0.400000006 
0.117967546 -0.381776482 -0.400000006 
0.118939921 -0.38154301 -0.400000006 
0.119912192 -0.381309599 -0.400000006 
0.120884225 -0.381076247 -0.400000006 
0.121856496 -0.380842805 -0.400000006 
0.122828871 -0.380609363 -0.400000006 
0.123791344 -0.380346179 -0.400000006 
0.124715343 -0.379963428 -0.400000006 
0.125639126 -0.379580796 -0.400000006 
0.126562685 -0.379198253 -0.400000006 
0.127486467 -0.378815591 -0.400000006 
0.12841025 -0.378432959 -0.400000006 
0.129333809 -0.378050417 -0.400000006 
0.130257592 -0.377667755 -0.400000006 
0.131181598 -0.377285033 -0.400000006 
0.13210538 -0.376902372 -0.400000006 
0.133029163 -0.37651974 -0.400000006 
0.133952945 -0.376137108 -0.400000006 
0.134876728 -0.375754446 -0.400000006 
0.135800287 -0.375371903 -0.400000006 
0.13672407 -0.374989271 -0.400000006 
0.137648061 -0.37460652 -0.400000006 
0.13857162 -0.374223977 -0.400000006 
0.139495403 -0.373841345 -0.400000006 
0.140419185 -0.373458683 -0.400000006 
0.141342968 -0.373076051 -0.400000006 
0.14226675 -0.37269339 -0.400000006 
0.143190533 -0.372310758 -0.400000006 
0.144114316 -0.371928126 -0.400000006 
0.145038098 -0.371545464 -0.400000006 
0.145961881 -0.371162832 -0.400000006 
0.14688544 -0.370780289 -0.400000006 
0.147809222 -0.370397627 -0.400000006 
0.148733005 -0.370014995 -0.400000006 
0.149656788 -0.369632363 -0.400000006 
0.150580794 -0.369249612 -0.400000006 
0.151504576 -0.36886698 -0.400000006 
0.15242812 -0.368484408 -0.400000006 
0.153351903 -0.368101776 -0.400000006 
0.154275686 -0.367719144 -0.400000006 
0.155199468 -0.367336482 -0.400000006 
0.156123042 -0.366953939 -0.400000006 
0.157047033 -0.366571218 -0.400000006 
0.157970816 -0.366188556 -0.400000006 
0.158894598 -0.365805924 -0.400000006 
0.159818381 -0.365423262 -0.400000006 
0.160742164 -0.36504063 -0.400000006 
0.161665723 -0.364658087 -0.400000006 
0.162589505 -0.364275426 -0.400000006 
0.163513511 -0.363892704 -0.400000006 
0.16443707 -0.363510162 -0.400000006 
0.165360853 -0.3631275 -0.400000006 
0.166284621 -0.362744868 -0.400000006 
0.167208403 -0.362362236 -0.400000006 
0.168132186 -0.361979574 -0.400000006 
0.169055969 -0.361596942 -0.400000006 
0.169979751 -0.36121428 -0.400000006 
0.170903534 -0.360831648 -0.400000006 
0.171827316 -0.360449016 -0.400000006 
0.172751099 -0.360066354 -0.400000006 
0.173674658 -0.359683812 -0.400000006 
0.174598441 -0.35930118 -0.400000006 
0.175522223 -0.358918518 -0.400000006 
0.176446229 -0.358535796 -0.400000006 
0.177370012 -0.358153164 -0.400000006 
0.178293571 -0.357770592 -0.400000006 
0.179217353 -0.35738796 -0.400000006 
0.180141136 -0.357005298 -0.400000006 
0.181064904 -0.356622666 -0.400000006 
0.181958228 -0.356180757 -0.400000006 
0.182810992 -0.355658203 -0.400000006 
0.183663532 -0.355135739 -0.400000006 
0.184516087 -0.354613304 -0.400000006 
0.185368642 -0.354090869 -0.400000006 
0.186221182 -0.353568405 -0.400000006 
0.187073529 -0.353046089 -0.400000006 
0.187926084 -0.352523655 -0.400000006 
0.188778833 -0.352001101 -0.400000006 
0.189631388 -0.351478636 -0.400000006 
0.190483734 -0.350956321 -0.400000006 
0.191336289 -0.350433886 -0.400000006 
0.192188829 -0.349911451 -0.400000006 
0.193041384 -0.349388987 -0.400000006 
0.193893939 -0.348866552 -0.400000006 
0.194746479 -0.348344117 -0.400000006 
0.195599034 -0.347821653 -0.400000006 
0.196451589 -0.347299218 -0.400000006 
0.19730413 -0.346776783 -0.400000006 
0.198156476 -0.346254468 -0.400000006 
0.199009031 -0.345732003 -0.400000006 
0.199861586 -0.345209569 -0.400000006 
0.200714335 -0.344687015 -0.400000006 
0.20156689 -0.34416455 -0.400000006 
0.202419236 -0.343642235 -0.400000006 
0.203271776 -0.3431198 -0.400000006 
0.204124331 -0.342597365 -0.400000006 
0.204976887 -0.342074901 -0.400000006 
0.205829233 -0.341552585 -0.400000006 
0.206681982 -0.341030031 -0.400000006 
0.207534537 -0.340507567 -0.400000006 
0.208387077 -0.339985132 -0.400000006 
0.209239632 -0.339462698 -0.400000006 
0.210092187 -0.338940263 -0.400000006 
0.210944533 -0.338417917 -0.400000006 
0.211797073 -0.337895483 -0.400000006 
0.212649837 -0.337372929 -0.400000006 
0.213502377 -0.336850464 -0.400000006 
0.214354724 -0.336328149 -0.400000006 
0.215207279 -0.335805714 -0.400000006 
0.216059834 -0.335283279 -0.400000006 
0.216912374 -0.334760815 -0.400000006 
0.217764929 -0.33423838 -0.400000006 
0.218617484 -0.333715945 -0.400000006 
0.219470024 -0.333193481 -0.400000006 
0.220322579 -0.332671046 -0.400000006 
0.221175134 -0.332148612 -0.400000006 
0.222027481 -0.331626296 -0.400000006 
0.222880021 -0.331103832 -0.400000006 
0.223732576 -0.330581397 -0.400000006 
0.224585325 -0.330058843 -0.400000006 
0.22543788 -0.329536378 -0.400000006 
0.226290226 -0.329014063 -0.400000006 
0.227142781 -0.328491628 -0.400000006 
0.227995321 -0.327969193 -0.400000006 
0.228847876 -0.327446729 -0.400000006 
0.229700431 -0.326924294 -0.400000006 
0.230552971 -0.32640186 -0.400000006 
0.231405526 -0.325879395 -0.400000006 
0.232258081 -0.32535696 -0.400000006 
0.233110636 -0.324834526 -0.400000006 
0.233963177 -0.324312091 -0.400000006 
0.234815523 -0.323789775 -0.400000006 
0.23560816 -0.323184848 -0.400000006 
0.236368671 -0.322535306 -0.400000006 
0.237128988 -0.321885943 -0.400000006 
0.237889141 -0.3212367 -0.400000006 
0.238649458 -0.320587337 -0.400000006 
0.239409789 -0.319937944 -0.400000006 
0.240170106 -0.319288582 -0.400000006 
0.240930438 -0.318639189 -0.400000006 
0.241690755 -0.317989826 -0.400000006 
0.242451087 -0.317340434 -0.400000006 
0.243211403 -0.316691041 -0.400000006 
0.243971735 -0.316041678 -0.400000006 
0.244732067 -0.315392286 -0.400000006 
0.245492205 -0.314743072 -0.400000006 
0.246252537 -0.314093679 -0.400000006 
0.247013032 -0.313444167 -0.400000006 
0.247773364 -0.312794775 -0.400000006 
0.248533681 -0.312145382 -0.400000006 
0.249293834 -0.311496168 -0.400000006 
0.250054151 -0.310846806 -0.400000006 
0.250814468 -0.310197413 -0.400000006 
0.251574814 -0.30954802 -0.400000006 
0.252335131 -0.308898658 -0.400000006 
0.253095448 -0.308249265 -0.400000006 
0.253855795 -0.307599902 -0.400000006 
0.254616112 -0.30695051 -0.400000006 
0.255376428 -0.306301147 -0.400000006 
0.256136566 -0.305651903 -0.400000006 
0.256896913 -0.30500254 -0.400000006 
0.257657409 -0.304352999 -0.400000006 
0.258417726 -0.303703606 -0.400000006 
0.259177864 -0.303054392 -0.400000006 
0.25993821 -0.302405 -0.400000006 
0.260698527 -0.301755637 -0.400000006 
0.261458844 -0.301106244 -0.400000006 
0.262219191 -0.300456882 -0.400000006 
0.262979507 -0.299807489 -0.400000006 
0.263739824 -0.299158126 -0.400000006 
0.264500141 -0.298508734 -0.400000006 
0.265260488 -0.297859371 -0.400000006 
0.266020805 -0.297209978 -0.400000006 
0.266780943 -0.296560764 -0.400000006 
0.26754126 -0.295911372 -0.400000006 
0.268301785 -0.29526183 -0.400000006 
0.269062102 -0.294612467 -0.400000006 
0.269822419 -0.293963075 -0.400000006 
0.270582557 -0.293313861 -0.400000006 
0.271342903 -0.292664468 -0.400000006 
0.27210322 -0.292015105 -0.400000006 
0.272863537 -0.291365713 -0.400000006 
0.273623884 -0.29071635 -0.400000006 
0.274384201 -0.290066957 -0.400000006 
0.275144517 -0.289417565 -0.400000006 
0.275904834 -0.288768202 -0.400000006 
0.276665181 -0.288118809 -0.400000006 
0.277425319 -0.287469596 -0.400000006 
0.278185636 -0.286820203 -0.400000006 
0.278946161 -0.286170661 -0.400000006 
0.279706478 -0.285521299 -0.400000006 
0.280466795 -0.284871906 -0.400000006 
0.281226933 -0.284222692 -0.400000006 
0.28198728 -0.283573329 -0.400000006 
0.282747597 -0.282923937 -0.400000006 
0.283410877 -0.282177508 -0.400000006 
0.28406024 -0.281417191 -0.400000006 
0.284709632 -0.280656844 -0.400000006 
0.285358995 -0.279896528 -0.400000006 
0.286008388 -0.279136211 -0.400000006 
0.286657751 -0.278375864 -0.400000006 
0.287306994 -0.277615726 -0.400000006 
0.287956357 -0.276855409 -0.400000006 
0.288605899 -0.276094913 -0.400000006 
0.289255291 -0.275334567 -0.400000006 
0.289904654 -0.27457425 -0.400000006 
0.290553868 -0.273814112 -0.400000006 
0.29120326 -0.273053765 -0.400000006 
0.291852653 -0.272293448 -0.400000006 
0.292502016 -0.271533132 -0.400000006 
0.293151557 -0.270772636 -0.400000006 
0.293800771 -0.270012468 -0.400000006 
0.294450164 -0.269252151 -0.400000006 
0.295099527 -0.268491834 -0.400000006 
0.295748919 -0.267731488 -0.400000006 
0.296398133 -0.26697135 -0.400000006 
0.297047526 -0.266211033 -0.400000006 
0.297697067 -0.265450537 -0.400000006 
0.29834643 -0.264690191 -0.400000006 
0.298995823 -0.263929874 -0.400000006 
0.299645036 -0.263169736 -0.400000006 
0.300294399 -0.262409419 -0.400000006 
0.300943792 -0.261649072 -0.400000006 
0.301593184 -0.260888755 -0.400000006 
0.302242547 -0.260128438 -0.400000006 
0.30289194 -0.259368092 -0.400000006 
0.303541303 -0.258607775 -0.400000006 
0.304190695 -0.257847458 -0.400000006 
0.304840058 -0.257087141 -0.400000006 
0.305489451 -0.256326795 -0.400000006 
0.306138664 -0.255566657 -0.400000006 
0.306788206 -0.254806161 -0.400000006 
0.307437599 -0.254045814 -0.400000006 
0.308086962 -0.253285497 -0.400000006 
0.308736175 -0.252525359 -0.400000006 
0.309385568 -0.251765043 -0.400000006 
0.310034931 -0.251004696 -0.400000006 
0.310684323 -0.250244379 -0.400000006 
0.311333716 -0.249484062 -0.400000006 
0.311983079 -0.24872373 -0.400000006 
0.312632471 -0.247963399 -0.400000006 
0.313281834 -0.247203082 -0.400000006 
0.313931227 -0.24644275 -0.400000006 
0.314580441 -0.245682612 -0.400000006 
0.315229833 -0.24492228 -0.400000006 
0.315879345 -0.244161785 -0.400000006 
0.316528738 -0.243401453 -0.400000006 
0.31717813 -0.242641121 -0.400000006 
0.317827344 -0.241880983 -0.400000006 
0.318476707 -0.241120666 -0.400000006 
0.319126099 -0.240360335 -0.400000006 
0.319775462 -0.239600003 -0.400000006 
0.320424706 -0.238839865 -0.400000006 
0.321074247 -0.238079354 -0.400000006 
0.32172361 -0.237319022 -0.400000006 
0.322373003 -0.236558706 -0.400000006 
0.323022366 -0.235798389 -0.400000006 
0.323659092 -0.235028848 -0.400000006 
0.324181408 -0.234176502 -0.400000006 
0.324703962 -0.233323753 -0.400000006 
0.325226396 -0.232471198 -0.400000006 
0.325748831 -0.231618658 -0.400000006 
0.326271147 -0.230766311 -0.400000006 
0.326793611 -0.229913771 -0.400000006 
0.327316046 -0.229061216 -0.400000006 
0.32783848 -0.228208676 -0.400000006 
0.328361034 -0.227355912 -0.400000006 
0.32888335 -0.226503581 -0.400000006 
0.329405814 -0.225651026 -0.400000006 
0.329928249 -0.224798486 -0.400000006 
0.330450684 -0.223945931 -0.400000006 
0.330972999 -0.223093584 -0.400000006 
0.331495583 -0.222240835 -0.400000006 
0.332018018 -0.221388295 -0.400000006 
0.332540452 -0.22053574 -0.400000006 
0.333062887 -0.2196832 -0.400000006 
0.333585322 -0.218830645 -0.400000006 
0.334107637 -0.217978299 -0.400000006 
0.334630221 -0.21712555 -0.400000006 
0.335152656 -0.21627301 -0.400000006 
0.335674971 -0.215420663 -0.400000006 
0.336197406 -0.214568108 -0.400000006 
0.336719871 -0.213715568 -0.400000006 
0.337242305 -0.212863013 -0.400000006 
0.337764859 -0.212010264 -0.400000006 
0.338287294 -0.211157724 -0.400000006 
0.338809609 -0.210305378 -0.400000006 
0.339332074 -0.209452823 -0.400000006 
0.339854509 -0.208600283 -0.400000006 
0.340376943 -0.207747728 -0.400000006 
0.340899259 -0.206895396 -0.400000006 
0.341421843 -0.206042632 -0.400000006 
0.341944277 -0.205190092 -0.400000006 
0.342466712 -0.204337537 -0.400000006 
0.342989147 -0.203484997 -0.400000006 
0.343511581 -0.202632457 -0.400000006 
0.344033897 -0.201780111 -0.400000006 
0.344556481 -0.200927347 -0.400000006 
0.345078915 -0.200074807 -0.400000006 
0.345601231 -0.19922246 -0.400000006 
0.346123666 -0.19836992 -0.400000006 
0.34664613 -0.197517365 -0.400000006 
0.347168565 -0.19666481 -0.400000006 
0.347691 -0.19581227 -0.400000006 
0.348213553 -0.194959521 -0.400000006 
0.348735869 -0.194107175 -0.400000006 
0.349258333 -0.19325462 -0.400000006 
0.349780768 -0.19240208 -0.400000006 
0.350303203 -0.19154954 -0.400000006 
0.350825518 -0.190697193 -0.400000006 
0.351348102 -0.189844429 -0.400000006 
0.351870537 -0.188991889 -0.400000006 
0.352392972 -0.188139349 -0.400000006 
0.352915406 -0.187286794 -0.400000006 
0.353437722 -0.186434448 -0.400000006 
0.353960156 -0.185581908 -0.400000006 
0.35448274 -0.184729159 -0.400000006 
0.355005175 -0.183876604 -0.400000006 
0.35552749 -0.183024257 -0.400000006 
0.356049925 -0.182171717 -0.400000006 
0.356526941 -0.181296021 -0.400000006 
0.356909603 -0.180372238 -0.400000006 
0.357292235 -0.179448456 -0.400000006 
0.357674956 -0.178524449 -0.400000006 
0.358057529 -0.17760089 -0.400000006 
0.358440161 -0.176677108 -0.400000006 
0.358822793 -0.175753325 -0.400000006 
0.359205365 -0.174829766 -0.400000006 
0.359587997 -0.173905984 -0.400000006 
0.359970629 -0.172982201 -0.400000006 
0.36035338 -0.172058195 -0.400000006 
0.360736012 -0.171134427 -0.400000006 
0.361118674 -0.170210645 -0.400000006 
0.361501217 -0.169287086 -0.400000006 
0.361883849 -0.168363303 -0.400000006 
0.362266511 -0.16743952 -0.400000006 
0.362649143 -0.166515738 -0.400000006 
0.363031775 -0.165591955 -0.400000006 
0.363414437 -0.164668173 -0.400000006 
0.363797069 -0.16374439 -0.400000006 
0.36417973 -0.162820607 -0.400000006 
0.364562362 -0.161896825 -0.400000006 
0.364944994 -0.160973042 -0.400000006 
0.365327567 -0.160049483 -0.400000006 
0.365710288 -0.159125477 -0.400000006 
0.36609292 -0.158201694 -0.400000006 
0.366475493 -0.157278135 -0.400000006 
0.366858125 -0.156354353 -0.400000006 
0.367240757 -0.15543057 -0.400000006 
0.367623419 -0.154506788 -0.400000006 
0.368006051 -0.153583005 -0.400000006 
0.368388802 -0.152658999 -0.400000006 
0.368771344 -0.15173544 -0.400000006 
0.369153976 -0.150811672 -0.400000006 
0.369536638 -0.14988789 -0.400000006 
0.369919181 -0.148964316 -0.400000006 
0.370301813 -0.148040533 -0.400000006 
0.370684475 -0.14711675 -0.400000006 
0.371067196 -0.146192759 -0.400000006 
0.371449828 -0.145268977 -0.400000006 
0.37183249 -0.144345194 -0.400000006 
0.372215122 -0.143421412 -0.400000006 
0.372597694 -0.142497852 -0.400000006 
0.372980326 -0.14157407 -0.400000006 
0.373362958 -0.140650287 -0.400000006 
0.37374562 -0.139726505 -0.400000006 
0.374128252 -0.138802722 -0.400000006 
0.374510884 -0.13787894 -0.400000006 
0.374893546 -0.136955157 -0.400000006 
0.375276178 -0.136031374 -0.400000006 
0.37565881 -0.135107592 -0.400000006 
0.376041383 -0.134184033 -0.400000006 
0.376424104 -0.133260041 -0.400000006 
0.376806766 -0.132336259 -0.400000006 
0.377189308 -0.131412685 -0.400000006 
0.37757194 -0.130488902 -0.400000006 
0.377954602 -0.12956512 -0.400000006 
0.378337234 -0.128641337 -0.400000006 
0.378719866 -0.127717555 -0.400000006 
0.379102618 -0.126793563 -0.400000006 
0.37948525 -0.125869781 -0.400000006 
0.379867792 -0.124946222 -0.400000006 
0.380250454 -0.124022439 -0.400000006 
0.380550951 -0.123072222 -0.400000006 
0.380784392 -0.122099951 -0.400000006 
0.381017804 -0.121127687 -0.400000006 
0.381251276 -0.120155185 -0.400000006 
0.381484687 -0.119182914 -0.400000006 
0.381718129 -0.118210651 -0.400000006 
0.381951541 -0.117238387 -0.400000006 
0.382184893 -0.116266347 -0.400000006 
0.382418334 -0.115294084 -0.400000006 
0.382651746 -0.114321813 -0.400000006 
0.382885158 -0.113349549 -0.400000006 
0.38311857 -0.112377279 -0.400000006 
0.383352011 -0.111405015 -0.400000006 
0.383585423 -0.110432744 -0.400000006 
0.383818835 -0.109460481 -0.400000006 
0.384052277 -0.108488217 -0.400000006 
0.384285629 -0.107516184 -0.400000006 
0.3845191 -0.106543683 -0.400000006 
0.384752542 -0.105571412 -0.400000006 
0.384985894 -0.104599379 -0.400000006 
0.385219306 -0.103627115 -0.400000006 
0.385452747 -0.102654845 -0.400000006 
0.385686159 -0.101682581 -0.400000006 
0.385919571 -0.10071031 -0.400000006 
0.386153042 -0.0997378081 -0.400000006 
0.386386484 -0.0987655446 -0.400000006 
0.386619836 -0.097793512 -0.400000006 
0.386853248 -0.0968212411 -0.400000006 
0.38708663 -0.0958492085 -0.400000006 
0.387320042 -0.094876945 -0.400000006 
0.387553453 -0.0939046741 -0.400000006 
0.387786925 -0.0929321796 -0.400000006 
0.388020366 -0.0919599086 -0.400000006 
0.388253778 -0.0909876376 -0.400000006 
0.38848719 -0.0900153741 -0.400000006 
0.388720572 -0.0890433416 -0.400000006 
0.388953984 -0.0880710781 -0.400000006 
0.389187396 -0.0870988071 -0.400000006 
0.389420837 -0.0861265361 -0.400000006 
0.389654249 -0.0851542726 -0.400000006 
0.389887661 -0.0841820091 -0.400000006 
0.390121102 -0.0832097381 -0.400000006 
0.390354514 -0.0822374672 -0.400000006 
0.390587926 -0.0812652037 -0.400000006 
0.390821338 -0.0802929401 -0.400000006 
0.391054779 -0.0793206692 -0.400000006 
0.391288191 -0.0783484057 -0.400000006 
0.391521543 -0.0773763657 -0.400000006 
0.391754985 -0.0764041021 -0.400000006 
0.391988397 -0.0754318386 -0.400000006 
0.392221808 -0.0744595677 -0.400000006 
0.39245525 -0.0734873042 -0.400000006 
0.392688721 -0.0725148022 -0.400000006 
0.392922133 -0.0715425313 -0.400000006 
0.393155515 -0.0705704987 -0.400000006 
0.393388927 -0.0695982352 -0.400000006 
0.393622279 -0.0686261952 -0.400000006 
0.393855691 -0.0676539391 -0.400000006 
0.394089133 -0.0666816682 -0.400000006 
0.394322604 -0.0657091662 -0.400000006 
0.394556016 -0.0647369027 -0.400000006 
0.394789457 -0.0637646317 -0.400000006 
0.395022869 -0.0627923608 -0.400000006 
0.395136148 -0.0618010722 -0.400000006 
0.395214587 -0.0608045012 -0.400000006 
0.395293057 -0.059807688 -0.400000006 
0.395371497 -0.0588108748 -0.400000006 
0.395449936 -0.0578140654 -0.400000006 
0.395528406 -0.0568172522 -0.400000006 
0.395606846 -0.0558204427 -0.400000006 
0.395685285 -0.0548236296 -0.400000006 
0.395763755 -0.0538268164 -0.400000006 
0.395842195 -0.0528300069 -0.400000006 
0.395920634 -0.0518331937 -0.400000006 
0.395999104 -0.0508363806 -0.400000006 
0.396077543 -0.0498398095 -0.400000006 
0.396155983 -0.0488429964 -0.400000006 
0.396234423 -0.0478461832 -0.400000006 
0.396312892 -0.0468493737 -0.400000006 
0.396391332 -0.0458525605 -0.400000006 
0.396469802 -0.0448555127 -0.400000006 
0.396548241 -0.0438586995 -0.400000006 
0.396626681 -0.0428621247 -0.400000006 
0.396705151 -0.0418653116 -0.400000006 
0.39678359 -0.0408685021 -0.400000006 
0.39686203 -0.0398719311 -0.400000006 
0.39694047 -0.0388751179 -0.400000006 
0.397018939 -0.0378780663 -0.400000006 
0.397097379 -0.0368812531 -0.400000006 
0.397175848 -0.0358844437 -0.400000006 
0.397254288 -0.0348876305 -0.400000006 
0.397332728 -0.033890821 -0.400000006 
0.397411168 -0.0328942463 -0.400000006 
0.397489637 -0.0318974331 -0.400000006 
0.397568077 -0.0309006236 -0.400000006 
0.397646517 -0.0299038105 -0.400000006 
0.397724986 -0.0289069973 -0.400000006 
0.397803426 -0.0279101878 -0.400000006 
0.397881866 -0.0269133747 -0.400000006 
0.397960335 -0.0259165652 -0.400000006 
0.398038775 -0.024919752 -0.400000006 
0.398117214 -0.0239229389 -0.400000006 
0.398195684 -0.0229261294 -0.400000006 
0.398274124 -0.0219295546 -0.400000006 
0.398352563 -0.0209327415 -0.400000006 
0.398431003 -0.019935932 -0.400000006 
0.398509473 -0.0189391188 -0.400000006 
0.398587912 -0.0179423057 -0.400000006 
0.398666382 -0.0169452578 -0.400000006 
0.398744822 -0.0159484446 -0.400000006 
0.398823291 -0.0149516314 -0.400000006 
0.398901731 -0.0139550604 -0.400000006 
0.39898017 -0.0129582472 -0.400000006 
0.39905861 -0.0119616762 -0.400000006 
0.39913705 -0.010964863 -0.400000006 
0.399215519 -0.00996781141 -0.400000006 
0.399293959 -0.00897100195 -0.400000006 
0.399372429 -0.00797418877 -0.400000006 
0.399450868 -0.0069773756 -0.400000006 
0.399529308 -0.00598056614 -0.400000006 
0.399607748 -0.00498399138 -0.400000006 
0.399686217 -0.00398718193 -0.400000006 
0.399764657 -0.00299036875 -0.400000006 
0.399843097 -0.00199355558 -0.400000006 
0.399921566 -0.000996746123 -0.400000006 
0.400000006 6.99382241e-08 -0.400000006 
0.400000006 0 -0.400000006 
0.400000006 0 -0.399000019 
0.400000006 0 -0.398000002 
0.400000006 0 -0.397000015 
0.400000006 0 -0.395999998 
0.400000006 0 -0.395000011 
0.400000006 0 -0.393999994 
0.400000006 0 -0.393000007 
0.400000006 0 -0.39200002 
0.400000006 0 -0.391000003 
0.400000006 0 -0.390000015 
0.400000006 0 -0.388999999 
0.400000006 0 -0.388000011 
0.400000006 0 -0.386999995 
0.400000006 0 -0.386000007 
0.400000006 0 -0.38500002 
0.400000006 0 -0.384000003 
0.400000006 0 -0.383000016 
0.400000006 0 -0.381999999 
0.400000006 0 -0.381000012 
0.400000006 0 -0.379999995 
0.400000006 0 -0.379000008 
0.400000006 0 -0.378000021 
0.400000006 0 -0.377000004 
0.400000006 0 -0.376000017 
0.400000006 0 -0.375 
0.400000006 0 -0.374000013 
0.400000006 0 -0.372999996 
0.400000006 0 -0.372000009 
0.400000006 0 -0.370999992 
0.400000006 0 -0.370000005 
0.400000006 0 -0.369000018 
0.400000006 0 -0.368000001 
0.400000006 0 -0.367000014 
0.400000006 0 -0.365999997 
0.400000006 0 -0.36500001 
0.400000006 0 -0.363999993 
0.400000006 0 -0.363000005 
0.400000006 0 -0.362000018 
0.400000006 0 -0.361000001 
0.400000006 0 -0.360000014 
0.400000006 0 -0.358999997 
0.400000006 0 -0.35800001 
0.400000006 0 -0.356999993 
0.400000006 0 -0.356000006 
0.400000006 0 -0.355000019 
0.400000006 0 -0.354000002 
0.400000006 0 -0.353000015 
0.400000006 0 -0.351999998 
0.400000006 0 -0.351000011 
0.400000006 0 -0.349999994 
0.400000006 0 -0.349000007 
0.400000006 0 -0.34800002 
0.400000006 0 -0.347000003 
0.400000006 0 -0.346000016 
0.400000006 0 -0.344999999 
0.400000006 0 -0.344000012 
0.400000006 0 -0.342999995 
0.400000006 0 -0.342000008 
0.400000006 0 -0.341000021 
0.400000006 0 -0.340000004 
0.400000006 0 -0.339000016 
0.400000006 0 -0.338 
0.400000006 0 -0.337000012 
0.400000006 0 -0.335999995 
0.400000006 0 -0.335000008 
0.400000006 0 -0.333999991 
0.400000006 0 -0.333000004 
0.400000006 0 -0.332000017 
0.400000006 0 -0.331 
0.400000006 0 -0.330000013 
0.400000006 0 -0.328999996 
0.400000006 0 -0.328000009 
0.400000006 0 -0.327000022 
0.400000006 0 -0.326000005 
0.400000006 0 -0.324999988 
0.400000006 0 -0.324000001 
0.400000006 0 -0.323000014 
0.400000006 0 -0.321999997 
0.400000006 0 -0.32100001 
0.400000006 0 -0.319999993 
0.400000006 0 -0.319000006 
0.400000006 0 -0.318000019 
0.400000006 0 -0.317000002 
0.400000006 0 -0.315999985 
0.400000006 0 -0.314999998 
0.400000006 0 -0.31400001 
0.400000006 0 -0.313000023 
0.400000006 0 -0.312000006 
0.400000006 0 -0.31099999 
0.400000006 0 -0.310000002 
0.400000006 0 -0.309000015 
0.400000006 0 -0.307999998 
0.400000006 0 -0.307000011 
0.400000006 0 -0.305999994 
0.400000006 0 -0.305000007 
0.400000006 0 -0.30400002 
0.400000006 0 -0.303000003 
0.400000006 0 -0.301999986 
0.400000006 0 -0.300999999 
0.400000006 0 -0.300000012 
0.400000006 0 -0.298999995 
0.400000006 0 -0.298000008 
0.400000006 0 -0.296999991 
0.400000006 0 -0.296000004 
0.400000006 0 -0.295000017 
0.400000006 0 -0.294 
0.400000006 0 -0.293000013 
0.400000006 0 -0.291999996 
0.400000006 0 -0.291000009 
0.400000006 0 -0.289999992 
0.400000006 0 -0.289000005 
0.400000006 0 -0.288000017 
0.400000006 0 -0.287 
0.400000006 0 -0.285999984 
0.400000006 0 -0.284999996 
0.400000006 0 -0.284000009 
0.400000006 0 -0.282999992 
0.400000006 0 -0.282000005 
0.400000006 0 -0.280999988 
0.400000006 0 -0.280000001 
0.400000006 0 -0.278999984 
0.400000006 0 -0.277999997 
0.400000006 0 -0.27700001 
