ply
format ascii 1.0
comment created by gply, a Houdini tool.
comment converted from .[b]geo
comment for more information about Houdini, try:
comment www.sidefx.com
element vertex 1536
property float x
property float y
property float z
element face 0
property list uchar int vertex_indices
end_header
0.5 -0.200000003 -0.111999989 
0.5 -0.200000003 -0.111000001 
0.5 -0.200000003 -0.110000014 
0.5 -0.200000003 -0.108999997 
0.5 -0.200000003 -0.10800001 
0.5 -0.200000003 -0.106999993 
0.5 -0.200000003 -0.106000006 
0.5 -0.200000003 -0.104999989 
0.5 -0.200000003 -0.104000002 
0.5 -0.200000003 -0.102999985 
0.5 -0.200000003 -0.101999998 
0.5 -0.200000003 -0.101000011 
0.5 -0.200000003 -0.099999994 
0.5 -0.200000003 -0.0990000069 
0.5 -0.200000003 -0.09799999 
0.5 -0.200000003 -0.0970000029 
0.5 -0.200000003 -0.0959999859 
0.5 -0.200000003 -0.0949999988 
0.5 -0.200000003 -0.0940000117 
0.5 -0.200000003 -0.0929999948 
0.5 -0.200000003 -0.0920000076 
0.5 -0.200000003 -0.0909999907 
0.5 -0.200000003 -0.0900000036 
0.5 -0.200000003 -0.0889999866 
0.5 -0.200000003 -0.0879999995 
0.5 -0.200000003 -0.0870000124 
0.5 -0.200000003 -0.0859999955 
0.5 -0.200000003 -0.0850000083 
0.5 -0.200000003 -0.0839999914 
0.5 -0.200000003 -0.0830000043 
0.5 -0.200000003 -0.0819999874 
0.5 -0.200000003 -0.0810000002 
0.5 -0.200000003 -0.0800000131 
0.5 -0.200000003 -0.0789999962 
0.5 -0.200000003 -0.0780000091 
0.5 -0.200000003 -0.0769999921 
0.5 -0.200000003 -0.076000005 
0.5 -0.200000003 -0.0749999881 
0.5 -0.200000003 -0.074000001 
0.5 -0.200000003 -0.0730000138 
0.5 -0.200000003 -0.0719999969 
0.5 -0.200000003 -0.0710000098 
0.5 -0.200000003 -0.0699999928 
0.5 -0.200000003 -0.0690000057 
0.5 -0.200000003 -0.0679999888 
0.5 -0.200000003 -0.0670000017 
0.5 -0.200000003 -0.0660000145 
0.5 -0.200000003 -0.0649999976 
0.5 -0.200000003 -0.0640000105 
0.5 -0.200000003 -0.0629999936 
0.5 -0.200000003 -0.0620000064 
0.5 -0.200000003 -0.0609999895 
0.5 -0.200000003 -0.0600000024 
0.5 -0.200000003 -0.0589999855 
0.5 -0.200000003 -0.0579999983 
0.5 -0.200000003 -0.0570000112 
0.5 -0.200000003 -0.0559999943 
0.5 -0.200000003 -0.0550000072 
0.5 -0.200000003 -0.0539999902 
0.5 -0.200000003 -0.0530000031 
0.5 -0.200000003 -0.0519999862 
0.5 -0.200000003 -0.050999999 
0.5 -0.200000003 -0.0500000119 
0.5 -0.200000003 -0.048999995 
0.5 -0.200000003 -0.0480000079 
0.5 -0.200000003 -0.0469999909 
0.5 -0.200000003 -0.0460000038 
0.5 -0.200000003 -0.0449999869 
0.5 -0.200000003 -0.0439999998 
0.5 -0.200000003 -0.0430000126 
0.5 -0.200000003 -0.0419999957 
0.5 -0.200000003 -0.0410000086 
0.5 -0.200000003 -0.0399999917 
0.5 -0.200000003 -0.0390000045 
0.5 -0.200000003 -0.0379999876 
0.5 -0.200000003 -0.0370000005 
0.5 -0.200000003 -0.0360000134 
0.5 -0.200000003 -0.0349999964 
0.5 -0.200000003 -0.0340000093 
0.5 -0.200000003 -0.0329999924 
0.5 -0.200000003 -0.0320000052 
0.5 -0.200000003 -0.0309999883 
0.5 -0.200000003 -0.0300000012 
0.5 -0.200000003 -0.0290000141 
0.5 -0.200000003 -0.0279999971 
0.5 -0.200000003 -0.02700001 
0.5 -0.200000003 -0.0259999931 
0.5 -0.200000003 -0.025000006 
0.5 -0.200000003 -0.023999989 
0.5 -0.200000003 -0.0230000019 
0.5 -0.200000003 -0.0220000148 
0.5 -0.200000003 -0.0209999979 
0.5 -0.200000003 -0.0200000107 
0.5 -0.200000003 -0.0189999938 
0.5 -0.200000003 -0.0180000067 
0.5 -0.200000003 -0.0169999897 
0.5 -0.200000003 -0.0160000026 
0.5 -0.200000003 -0.0149999857 
0.5 -0.200000003 -0.0139999986 
0.5 -0.200000003 -0.0130000114 
0.5 -0.200000003 -0.0119999945 
0.5 -0.200000003 -0.0110000074 
0.5 -0.200000003 -0.00999999046 
0.5 -0.200000003 -0.00900000334 
0.5 -0.200000003 -0.00799998641 
0.5 -0.200000003 -0.00699999928 
0.5 -0.200000003 -0.00600001216 
0.5 -0.200000003 -0.00499999523 
0.5 -0.200000003 -0.00400000811 
0.5 -0.200000003 -0.00299999118 
0.5 -0.200000003 -0.00200000405 
0.5 -0.200000003 -0.000999987125 
0.5 -0.200000003 0 
0.5 -0.200000003 0.000999987125 
0.5 -0.200000003 0.00199997425 
0.5 -0.200000003 0.00300002098 
0.5 -0.200000003 0.00400000811 
0.5 -0.200000003 0.00499999523 
0.5 -0.200000003 0.00599998236 
0.5 -0.200000003 0.00700002909 
0.5 -0.200000003 0.00800001621 
0.5 -0.200000003 0.00900000334 
0.5 -0.200000003 0.00999999046 
0.5 -0.200000003 0.0109999776 
0.5 -0.200000003 0.0120000243 
0.5 -0.200000003 0.0130000114 
0.5 -0.200000003 0.0139999986 
0.5 -0.200000003 0.0149999857 
0.5 -0.200000003 0.0159999728 
0.5 -0.200000003 0.0170000196 
0.5 -0.200000003 0.0180000067 
0.5 -0.200000003 0.0189999938 
0.5 -0.200000003 0.0199999809 
0.5 -0.200000003 0.0210000277 
0.5 -0.200000003 0.0220000148 
0.5 -0.200000003 0.0230000019 
0.5 -0.200000003 0.023999989 
0.5 -0.200000003 0.0249999762 
0.5 -0.200000003 0.0260000229 
0.5 -0.200000003 0.02700001 
0.5 -0.200000003 0.0279999971 
0.5 -0.200000003 0.0289999843 
0.5 -0.200000003 0.0299999714 
0.5 -0.200000003 0.0310000181 
0.5 -0.200000003 0.0320000052 
0.5 -0.200000003 0.0329999924 
0.5 -0.200000003 0.0339999795 
0.5 -0.200000003 0.0350000262 
0.5 -0.200000003 0.0360000134 
0.5 -0.200000003 0.0370000005 
0.5 -0.200000003 0.0379999876 
0.5 -0.200000003 0.0389999747 
0.5 -0.200000003 0.0400000215 
0.5 -0.200000003 0.0410000086 
0.5 -0.200000003 0.0419999957 
0.5 -0.200000003 0.0429999828 
0.5 -0.200000003 0.0440000296 
0.5 -0.200000003 0.0450000167 
0.5 -0.200000003 0.0460000038 
0.5 -0.200000003 0.0469999909 
0.5 -0.200000003 0.0479999781 
0.5 -0.200000003 0.0490000248 
0.5 -0.200000003 0.0500000119 
0.5 -0.200000003 0.050999999 
0.5 -0.200000003 0.0519999862 
0.5 -0.200000003 0.0529999733 
0.5 -0.200000003 0.05400002 
0.5 -0.200000003 0.0550000072 
0.5 -0.200000003 0.0559999943 
0.5 -0.200000003 0.0569999814 
0.5 -0.200000003 0.0580000281 
0.5 -0.200000003 0.0590000153 
0.5 -0.200000003 0.0600000024 
0.5 -0.200000003 0.0609999895 
0.5 -0.200000003 0.0619999766 
0.5 -0.200000003 0.0630000234 
0.5 -0.200000003 0.0640000105 
0.5 -0.200000003 0.0649999976 
0.5 -0.200000003 0.0659999847 
0.5 -0.200000003 0.0669999719 
0.5 -0.200000003 0.0680000186 
0.5 -0.200000003 0.0690000057 
0.5 -0.200000003 0.0699999928 
0.5 -0.200000003 0.07099998 
0.5 -0.200000003 0.0720000267 
0.5 -0.200000003 0.0730000138 
0.5 -0.200000003 0.074000001 
0.5 -0.200000003 0.0749999881 
0.5 -0.200000003 0.0759999752 
0.5 -0.200000003 0.0770000219 
0.5 -0.200000003 0.0780000091 
0.5 -0.200000003 0.0789999962 
0.5 -0.200000003 0.0799999833 
0.5 -0.200000003 0.0809999704 
0.5 -0.200000003 0.0820000172 
0.5 -0.200000003 0.0830000043 
0.5 -0.200000003 0.0839999914 
0.5 -0.200000003 0.0849999785 
0.5 -0.200000003 0.0860000253 
0.5 -0.200000003 0.0870000124 
0.5 -0.200000003 0.0879999995 
0.5 -0.200000003 0.0889999866 
0.5 -0.200000003 0.0899999738 
0.5 -0.200000003 0.0910000205 
0.5 -0.200000003 0.0920000076 
0.5 -0.200000003 0.0929999948 
0.5 -0.200000003 0.0939999819 
0.5 -0.200000003 0.0950000286 
0.5 -0.200000003 0.0960000157 
0.5 -0.200000003 0.0970000029 
0.5 -0.200000003 0.09799999 
0.5 -0.200000003 0.0989999771 
0.5 -0.200000003 0.100000024 
0.5 -0.200000003 0.101000011 
0.5 -0.200000003 0.101999998 
0.5 -0.200000003 0.102999985 
0.5 -0.200000003 0.103999972 
0.5 -0.200000003 0.105000019 
0.5 -0.200000003 0.106000006 
0.5 -0.200000003 0.106999993 
0.5 -0.200000003 0.10799998 
0.5 -0.200000003 0.109000027 
0.5 -0.200000003 0.110000014 
0.5 -0.200000003 0.111000001 
0.5 -0.200000003 0.111999989 
0.5 -0.200000003 0.112999976 
0.5 -0.200000003 0.114000022 
0.5 -0.200000003 0.11500001 
0.5 -0.200000003 0.115999997 
0.5 -0.200000003 0.116999984 
0.5 -0.200000003 0.117999971 
0.5 -0.200000003 0.119000018 
0.5 -0.200000003 0.120000005 
0.5 -0.200000003 0.120999992 
0.5 -0.200000003 0.121999979 
0.5 -0.200000003 0.123000026 
0.5 -0.200000003 0.124000013 
0.5 -0.200000003 0.125 
0.5 -0.200000003 0.125999987 
0.5 -0.200000003 0.126999974 
0.5 -0.200000003 0.128000021 
0.5 -0.200000003 0.129000008 
0.5 -0.200000003 0.129999995 
0.5 -0.200000003 0.130999982 
0.5 -0.200000003 0.132000029 
0.5 -0.200000003 0.133000016 
0.5 -0.200000003 0.134000003 
0.5 -0.200000003 0.13499999 
0.5 -0.200000003 0.135999978 
0.5 -0.200000003 0.137000024 
0.5 -0.200000003 0.138000011 
0.5 -0.200000003 0.138999999 
0.5 -0.200000003 0.139999986 
0.5 -0.200000003 0.140999973 
0.5 -0.200000003 0.14200002 
0.5 -0.200000003 0.143000007 
0.5 -0.200000003 0.143999994 
0.5 -0.200000003 0.144999981 
0.5 -0.200000003 0.146000028 
0.5 -0.200000003 0.147000015 
0.5 -0.200000003 0.148000002 
0.5 -0.200000003 0.148999989 
0.5 -0.200000003 0.149999976 
0.5 -0.200000003 0.151000023 
0.5 -0.200000003 0.15200001 
0.5 -0.200000003 0.152999997 
0.5 -0.200000003 0.153999984 
0.5 -0.200000003 0.154999971 
0.5 -0.200000003 0.156000018 
0.5 -0.200000003 0.157000005 
0.5 -0.200000003 0.157999992 
0.5 -0.200000003 0.158999979 
0.5 -0.200000003 0.160000026 
0.5 -0.200000003 0.161000013 
0.5 -0.200000003 0.162 
0.5 -0.200000003 0.162999988 
0.5 -0.200000003 0.163999975 
0.5 -0.200000003 0.165000021 
0.5 -0.200000003 0.166000009 
0.5 -0.200000003 0.166999996 
0.5 -0.200000003 0.167999983 
0.5 -0.200000003 0.16900003 
0.5 -0.200000003 0.170000017 
0.5 -0.200000003 0.171000004 
0.5 -0.200000003 0.171999991 
0.5 -0.200000003 0.172999978 
0.5 -0.200000003 0.174000025 
0.5 -0.200000003 0.175000012 
0.5 -0.200000003 0.175999999 
0.5 -0.200000003 0.176999986 
0.5 -0.200000003 0.177999973 
0.5 -0.200000003 0.17900002 
0.5 -0.200000003 0.180000007 
0.5 -0.200000003 0.180999994 
0.5 -0.200000003 0.181999981 
0.5 -0.200000003 0.183000028 
0.5 -0.200000003 0.184000015 
0.5 -0.200000003 0.185000002 
0.5 -0.200000003 0.18599999 
0.5 -0.200000003 0.186999977 
0.5 -0.200000003 0.188000023 
0.5 -0.200000003 0.18900001 
0.5 -0.200000003 0.189999998 
0.5 -0.200000003 0.190999985 
0.5 -0.200000003 0.191999972 
0.5 -0.200000003 0.193000019 
0.5 -0.200000003 0.194000006 
0.5 -0.200000003 0.194999993 
0.5 -0.200000003 0.19599998 
0.5 -0.200000003 0.197000027 
0.5 -0.200000003 0.198000014 
0.5 -0.200000003 0.199000001 
0.5 -0.200000003 0.199999988 
0.5 -0.200000003 0.200999975 
0.5 -0.200000003 0.202000022 
0.5 -0.200000003 0.203000009 
0.5 -0.200000003 0.203999996 
0.5 -0.200000003 0.204999983 
0.5 -0.200000003 0.20599997 
0.5 -0.200000003 0.207000017 
0.5 -0.200000003 0.208000004 
0.5 -0.200000003 0.208999991 
0.5 -0.200000003 0.209999979 
0.5 -0.200000003 0.211000025 
0.5 -0.200000003 0.212000012 
0.5 -0.200000003 0.213 
0.5 -0.200000003 0.213999987 
0.5 -0.200000003 0.214999974 
0.5 -0.200000003 0.216000021 
0.5 -0.200000003 0.217000008 
0.5 -0.200000003 0.217999995 
0.5 -0.200000003 0.218999982 
0.5 -0.200000003 0.220000029 
0.5 -0.200000003 0.221000016 
0.5 -0.200000003 0.222000003 
0.5 -0.200000003 0.22299999 
0.5 -0.200000003 0.223999977 
0.5 -0.200000003 0.225000024 
0.5 -0.200000003 0.226000011 
0.5 -0.200000003 0.226999998 
0.5 -0.200000003 0.227999985 
0.5 -0.200000003 0.228999972 
0.5 -0.200000003 0.230000019 
0.5 -0.200000003 0.231000006 
0.5 -0.200000003 0.231999993 
0.5 -0.200000003 0.23299998 
0.5 -0.200000003 0.234000027 
0.5 -0.200000003 0.235000014 
0.5 -0.200000003 0.236000001 
0.5 -0.200000003 0.236999989 
0.5 -0.200000003 0.237999976 
0.5 -0.200000003 0.239000022 
0.5 -0.200000003 0.24000001 
0.5 -0.200000003 0.240999997 
0.5 -0.200000003 0.241999984 
0.5 -0.200000003 0.242999971 
0.5 -0.200000003 0.244000018 
0.5 -0.200000003 0.245000005 
0.5 -0.200000003 0.245999992 
0.5 -0.200000003 0.246999979 
0.5 -0.200000003 0.248000026 
0.5 -0.200000003 0.249000013 
0.5 -0.200000003 0.25 
0.5 -0.200000003 0.250999987 
0.5 -0.200000003 0.251999974 
0.5 -0.200000003 0.253000021 
0.5 -0.200000003 0.254000008 
0.5 -0.200000003 0.254999995 
0.5 -0.200000003 0.255999982 
0.5 -0.200000003 0.257000029 
0.5 -0.200000003 0.258000016 
0.5 -0.200000003 0.259000003 
0.5 -0.200000003 0.25999999 
0.5 -0.200000003 0.260999978 
0.5 -0.200000003 0.262000024 
0.5 -0.200000003 0.263000011 
0.5 -0.200000003 0.263999999 
0.5 -0.200000003 0.264999986 
0.5 -0.200000003 0.265999973 
0.5 -0.200000003 0.26700002 
0.5 -0.200000003 0.268000007 
0.5 -0.200000003 0.268999994 
0.5 -0.200000003 0.269999981 
0.5 -0.200000003 0.271000028 
0.5 -0.200000003 0.272000015 
0.5 -0.200000003 0.273000002 
0.5 -0.200000003 0.273999989 
0.5 -0.200000003 0.274999976 
0.5 -0.200000003 0.276000023 
0.5 -0.200000003 0.27700001 
0.5 -0.200000003 0.277999997 
0.5 -0.200000003 0.278999984 
0.5 -0.200000003 0.279999971 
0.5 -0.200000003 0.281000018 
0.5 -0.200000003 0.282000005 
0.5 -0.200000003 0.282999992 
0.5 -0.200000003 0.283999979 
0.5 -0.200000003 0.285000026 
0.5 -0.200000003 0.286000013 
0.5 -0.200000003 0.287 
0.5 -0.200000003 0.287999988 
0.5 -0.200000003 0.288999975 
0.5 -0.200000003 0.290000021 
0.5 -0.200000003 0.291000009 
0.5 -0.200000003 0.291999996 
0.5 -0.200000003 0.292999983 
0.5 -0.200000003 0.29400003 
0.5 -0.200000003 0.295000017 
0.5 -0.200000003 0.296000004 
0.5 -0.200000003 0.296999991 
0.5 -0.200000003 0.297999978 
0.5 -0.200000003 0.299000025 
0.5 -0.200000003 0.300000012 
0.5 -0.200000003 0.300999999 
0.5 -0.200000003 0.301999986 
0.5 -0.200000003 0.302999973 
0.5 -0.200000003 0.30400002 
0.5 -0.200000003 0.305000007 
0.5 -0.200000003 0.305999994 
0.5 -0.200000003 0.306999981 
0.5 -0.200000003 0.308000028 
0.5 -0.200000003 0.309000015 
0.5 -0.200000003 0.310000002 
0.5 -0.200000003 0.31099999 
0.5 -0.200000003 0.311999977 
0.5 -0.200000003 0.313000023 
0.5 -0.200000003 0.31400001 
0.5 -0.200000003 0.314999998 
0.5 -0.200000003 0.315999985 
0.5 -0.200000003 0.316999972 
0.5 -0.200000003 0.318000019 
0.5 -0.200000003 0.319000006 
0.5 -0.200000003 0.319999993 
0.5 -0.200000003 0.32099998 
0.5 -0.200000003 0.322000027 
0.5 -0.200000003 0.323000014 
0.5 -0.200000003 0.324000001 
0.5 -0.200000003 0.324999988 
0.5 -0.200000003 0.325999975 
0.5 -0.200000003 0.327000022 
0.5 -0.200000003 0.328000009 
0.5 -0.200000003 0.328999996 
0.5 -0.200000003 0.329999983 
0.5 -0.200000003 0.33099997 
0.5 -0.200000003 0.332000017 
0.5 -0.200000003 0.333000004 
0.5 -0.200000003 0.333999991 
0.5 -0.200000003 0.334999979 
0.5 -0.200000003 0.336000025 
0.5 -0.200000003 0.337000012 
0.5 -0.200000003 0.338 
0.5 -0.200000003 0.338999987 
0.5 -0.200000003 0.339999974 
0.5 -0.200000003 0.341000021 
0.5 -0.200000003 0.342000008 
0.5 -0.200000003 0.342999995 
0.5 -0.200000003 0.343999982 
0.5 -0.200000003 0.345000029 
0.5 -0.200000003 0.346000016 
0.5 -0.200000003 0.347000003 
0.5 -0.200000003 0.34799999 
0.5 -0.200000003 0.348999977 
0.5 -0.200000003 0.350000024 
0.5 -0.200000003 0.351000011 
0.5 -0.200000003 0.351999998 
0.5 -0.200000003 0.352999985 
0.5 -0.200000003 0.353999972 
0.5 -0.200000003 0.355000019 
0.5 -0.200000003 0.356000006 
0.5 -0.200000003 0.356999993 
0.5 -0.200000003 0.35799998 
0.5 -0.200000003 0.359000027 
0.5 -0.200000003 0.360000014 
0.5 -0.200000003 0.361000001 
0.5 -0.200000003 0.361999989 
0.5 -0.200000003 0.362999976 
0.5 -0.200000003 0.364000022 
0.5 -0.200000003 0.36500001 
0.5 -0.200000003 0.365999997 
0.5 -0.200000003 0.366999984 
0.5 -0.200000003 0.367999971 
0.5 -0.200000003 0.369000018 
0.5 -0.200000003 0.370000005 
0.5 -0.200000003 0.370999992 
0.5 -0.200000003 0.371999979 
0.5 -0.200000003 0.373000026 
0.5 -0.200000003 0.374000013 
0.5 -0.200000003 0.375 
0.5 -0.200000003 0.375999987 
0.5 -0.200000003 0.376999974 
0.5 -0.200000003 0.378000021 
0.5 -0.200000003 0.379000008 
0.5 -0.200000003 0.379999995 
0.5 -0.200000003 0.380999982 
0.5 -0.200000003 0.382000029 
0.5 -0.200000003 0.383000016 
0.5 -0.200000003 0.384000003 
0.5 -0.200000003 0.38499999 
0.5 -0.200000003 0.385999978 
0.5 -0.200000003 0.387000024 
0.5 -0.200000003 0.388000011 
0.5 -0.200000003 0.388999999 
0.5 -0.200000003 0.389999986 
0.5 -0.200000003 0.390999973 
0.5 -0.200000003 0.39200002 
0.5 -0.200000003 0.393000007 
0.5 -0.200000003 0.393999994 
0.5 -0.200000003 0.394999981 
0.5 -0.200000003 0.396000028 
0.5 -0.200000003 0.397000015 
0.5 -0.200000003 0.398000002 
0.5 -0.200000003 0.398999989 
0.5 -0.200000003 0.399999976 
0.5 -0.200000003 0.401000023 
0.5 -0.200000003 0.40200001 
0.5 -0.200000003 0.402999997 
0.5 -0.200000003 0.403999984 
0.5 -0.200000003 0.404999971 
0.5 -0.200000003 0.406000018 
0.5 -0.200000003 0.407000005 
0.5 -0.200000003 0.407999992 
0.5 -0.200000003 0.408999979 
0.5 -0.200000003 0.410000026 
0.5 -0.200000003 0.411000013 
0.5 -0.200000003 0.412 
0.5 -0.200000003 0.412999988 
0.5 -0.200000003 0.413999975 
0.5 -0.200000003 0.415000021 
0.5 -0.200000003 0.416000009 
0.5 -0.200000003 0.416999996 
0.5 -0.200000003 0.417999983 
0.5 -0.200000003 0.41900003 
0.5 -0.200000003 0.420000017 
0.5 -0.200000003 0.421000004 
0.5 -0.200000003 0.421999991 
0.5 -0.200000003 0.422999978 
0.5 -0.200000003 0.424000025 
0.5 -0.200000003 0.425000012 
0.5 -0.200000003 0.425999999 
0.5 -0.200000003 0.426999986 
0.5 -0.200000003 0.427999973 
0.5 -0.200000003 0.42900002 
0.5 -0.200000003 0.430000007 
0.5 -0.200000003 0.430999994 
0.5 -0.200000003 0.431999981 
0.5 -0.200000003 0.433000028 
0.5 -0.200000003 0.434000015 
0.5 -0.200000003 0.435000002 
0.5 -0.200000003 0.43599999 
0.5 -0.200000003 0.436999977 
0.5 -0.200000003 0.438000023 
0.5 -0.200000003 0.43900001 
0.5 -0.200000003 0.439999998 
0.5 -0.200000003 0.440999985 
0.5 -0.200000003 0.441999972 
0.5 -0.200000003 0.443000019 
0.5 -0.200000003 0.444000006 
0.5 -0.200000003 0.444999993 
0.5 -0.200000003 0.44599998 
0.5 -0.200000003 0.447000027 
0.5 -0.200000003 0.448000014 
0.5 -0.200000003 0.449000001 
0.5 -0.200000003 0.449999988 
0.5 -0.200000003 0.450999975 
0.5 -0.200000003 0.452000022 
0.5 -0.200000003 0.453000009 
0.5 -0.200000003 0.453999996 
0.5 -0.200000003 0.454999983 
0.5 -0.200000003 0.45599997 
0.5 -0.200000003 0.457000017 
0.5 -0.200000003 0.458000004 
0.5 -0.200000003 0.458999991 
0.5 -0.200000003 0.459999979 
0.5 -0.200000003 0.461000025 
0.5 -0.200000003 0.462000012 
0.5 -0.200000003 0.463 
0.5 -0.200000003 0.463999987 
0.5 -0.200000003 0.464999974 
0.5 -0.200000003 0.466000021 
0.5 -0.200000003 0.467000008 
0.5 -0.200000003 0.467999995 
0.5 -0.200000003 0.468999982 
0.5 -0.200000003 0.470000029 
0.5 -0.200000003 0.471000016 
0.5 -0.200000003 0.472000003 
0.5 -0.200000003 0.47299999 
0.5 -0.200000003 0.473999977 
0.5 -0.200000003 0.475000024 
0.5 -0.200000003 0.476000011 
0.5 -0.200000003 0.476999998 
0.5 -0.200000003 0.477999985 
0.5 -0.200000003 0.478999972 
0.5 -0.200000003 0.480000019 
0.5 -0.200000003 0.481000006 
0.5 -0.200000003 0.481999993 
0.5 -0.200000003 0.48299998 
0.5 -0.200000003 0.484000027 
0.5 -0.200000003 0.485000014 
0.5 -0.200000003 0.486000001 
0.5 -0.200000003 0.486999989 
0.5 -0.200000003 0.487999976 
0.5 -0.200000003 0.489000022 
0.5 -0.200000003 0.49000001 
0.5 -0.200000003 0.490999997 
0.5 -0.200000003 0.491999984 
0.5 -0.200000003 0.492999971 
0.5 -0.200000003 0.494000018 
0.5 -0.200000003 0.495000005 
0.5 -0.200000003 0.495999992 
0.5 -0.200000003 0.496999979 
0.5 -0.200000003 0.498000026 
0.5 -0.200000003 0.499000013 
0.5 -0.200000003 0.5 
-0.5 -0.200000003 -0.5 
-0.5 -0.200000003 -0.499000013 
-0.5 -0.200000003 -0.497999996 
-0.5 -0.200000003 -0.497000009 
-0.5 -0.200000003 -0.495999992 
-0.5 -0.200000003 -0.495000005 
-0.5 -0.200000003 -0.493999988 
-0.5 -0.200000003 -0.493000001 
-0.5 -0.200000003 -0.492000014 
-0.5 -0.200000003 -0.490999997 
-0.5 -0.200000003 -0.49000001 
-0.5 -0.200000003 -0.488999993 
-0.5 -0.200000003 -0.488000005 
-0.5 -0.200000003 -0.486999989 
-0.5 -0.200000003 -0.486000001 
-0.5 -0.200000003 -0.485000014 
-0.5 -0.200000003 -0.483999997 
-0.5 -0.200000003 -0.48300001 
-0.5 -0.200000003 -0.481999993 
-0.5 -0.200000003 -0.481000006 
-0.5 -0.200000003 -0.479999989 
-0.5 -0.200000003 -0.479000002 
-0.5 -0.200000003 -0.477999985 
-0.5 -0.200000003 -0.476999998 
-0.5 -0.200000003 -0.476000011 
-0.5 -0.200000003 -0.474999994 
-0.5 -0.200000003 -0.474000007 
-0.5 -0.200000003 -0.47299999 
-0.5 -0.200000003 -0.472000003 
-0.5 -0.200000003 -0.471000016 
-0.5 -0.200000003 -0.469999999 
-0.5 -0.200000003 -0.469000012 
-0.5 -0.200000003 -0.467999995 
-0.5 -0.200000003 -0.467000008 
-0.5 -0.200000003 -0.465999991 
-0.5 -0.200000003 -0.465000004 
-0.5 -0.200000003 -0.463999987 
-0.5 -0.200000003 -0.463 
-0.5 -0.200000003 -0.462000012 
-0.5 -0.200000003 -0.460999995 
-0.5 -0.200000003 -0.460000008 
-0.5 -0.200000003 -0.458999991 
-0.5 -0.200000003 -0.458000004 
-0.5 -0.200000003 -0.456999987 
-0.5 -0.200000003 -0.456 
-0.5 -0.200000003 -0.454999983 
-0.5 -0.200000003 -0.453999996 
-0.5 -0.200000003 -0.453000009 
-0.5 -0.200000003 -0.451999992 
-0.5 -0.200000003 -0.451000005 
-0.5 -0.200000003 -0.449999988 
-0.5 -0.200000003 -0.449000001 
-0.5 -0.200000003 -0.448000014 
-0.5 -0.200000003 -0.446999997 
-0.5 -0.200000003 -0.44600001 
-0.5 -0.200000003 -0.444999993 
-0.5 -0.200000003 -0.444000006 
-0.5 -0.200000003 -0.442999989 
-0.5 -0.200000003 -0.442000002 
-0.5 -0.200000003 -0.440999985 
-0.5 -0.200000003 -0.439999998 
-0.5 -0.200000003 -0.43900001 
-0.5 -0.200000003 -0.437999994 
-0.5 -0.200000003 -0.437000006 
-0.5 -0.200000003 -0.43599999 
-0.5 -0.200000003 -0.435000002 
-0.5 -0.200000003 -0.434000015 
-0.5 -0.200000003 -0.432999998 
-0.5 -0.200000003 -0.431999981 
-0.5 -0.200000003 -0.430999994 
-0.5 -0.200000003 -0.430000007 
-0.5 -0.200000003 -0.42899999 
-0.5 -0.200000003 -0.428000003 
-0.5 -0.200000003 -0.426999986 
-0.5 -0.200000003 -0.425999999 
-0.5 -0.200000003 -0.425000012 
-0.5 -0.200000003 -0.423999995 
-0.5 -0.200000003 -0.423000008 
-0.5 -0.200000003 -0.421999991 
-0.5 -0.200000003 -0.421000004 
-0.5 -0.200000003 -0.420000017 
-0.5 -0.200000003 -0.419 
-0.5 -0.200000003 -0.417999983 
-0.5 -0.200000003 -0.416999996 
-0.5 -0.200000003 -0.416000009 
-0.5 -0.200000003 -0.414999992 
-0.5 -0.200000003 -0.414000005 
-0.5 -0.200000003 -0.412999988 
-0.5 -0.200000003 -0.412 
-0.5 -0.200000003 -0.411000013 
-0.5 -0.200000003 -0.409999996 
-0.5 -0.200000003 -0.409000009 
-0.5 -0.200000003 -0.407999992 
-0.5 -0.200000003 -0.407000005 
-0.5 -0.200000003 -0.406000018 
-0.5 -0.200000003 -0.405000001 
-0.5 -0.200000003 -0.403999984 
-0.5 -0.200000003 -0.402999997 
-0.5 -0.200000003 -0.40200001 
-0.5 -0.200000003 -0.400999993 
-0.5 -0.200000003 -0.400000006 
-0.5 -0.200000003 -0.398999989 
-0.5 -0.200000003 -0.398000002 
-0.5 -0.200000003 -0.397000015 
-0.5 -0.200000003 -0.395999998 
-0.5 -0.200000003 -0.395000011 
-0.5 -0.200000003 -0.393999994 
-0.5 -0.200000003 -0.393000007 
-0.5 -0.200000003 -0.39199999 
-0.5 -0.200000003 -0.391000003 
-0.5 -0.200000003 -0.389999986 
-0.5 -0.200000003 -0.388999999 
-0.5 -0.200000003 -0.388000011 
-0.5 -0.200000003 -0.386999995 
-0.5 -0.200000003 -0.386000007 
-0.5 -0.200000003 -0.38499999 
-0.5 -0.200000003 -0.384000003 
-0.5 -0.200000003 -0.383000016 
-0.5 -0.200000003 -0.381999999 
-0.5 -0.200000003 -0.380999982 
-0.5 -0.200000003 -0.379999995 
-0.5 -0.200000003 -0.379000008 
-0.5 -0.200000003 -0.377999991 
-0.5 -0.200000003 -0.377000004 
-0.5 -0.200000003 -0.375999987 
-0.5 -0.200000003 -0.375 
-0.5 -0.200000003 -0.374000013 
-0.5 -0.200000003 -0.372999996 
-0.5 -0.200000003 -0.371999979 
-0.5 -0.200000003 -0.370999992 
-0.5 -0.200000003 -0.370000005 
-0.5 -0.200000003 -0.369000018 
-0.5 -0.200000003 -0.368000001 
-0.5 -0.200000003 -0.366999984 
-0.5 -0.200000003 -0.365999997 
-0.5 -0.200000003 -0.36500001 
-0.5 -0.200000003 -0.363999993 
-0.5 -0.200000003 -0.363000005 
-0.5 -0.200000003 -0.361999989 
-0.5 -0.200000003 -0.361000001 
-0.5 -0.200000003 -0.360000014 
-0.5 -0.200000003 -0.358999997 
-0.5 -0.200000003 -0.35799998 
-0.5 -0.200000003 -0.356999993 
-0.5 -0.200000003 -0.356000006 
-0.5 -0.200000003 -0.355000019 
-0.5 -0.200000003 -0.354000002 
-0.5 -0.200000003 -0.352999985 
-0.5 -0.200000003 -0.351999998 
-0.5 -0.200000003 -0.351000011 
-0.5 -0.200000003 -0.349999994 
-0.5 -0.200000003 -0.349000007 
-0.5 -0.200000003 -0.34799999 
-0.5 -0.200000003 -0.347000003 
-0.5 -0.200000003 -0.346000016 
-0.5 -0.200000003 -0.344999999 
-0.5 -0.200000003 -0.343999982 
-0.5 -0.200000003 -0.342999995 
-0.5 -0.200000003 -0.342000008 
-0.5 -0.200000003 -0.341000021 
-0.5 -0.200000003 -0.340000004 
-0.5 -0.200000003 -0.338999987 
-0.5 -0.200000003 -0.338 
-0.5 -0.200000003 -0.337000012 
-0.5 -0.200000003 -0.335999995 
-0.5 -0.200000003 -0.334999979 
-0.5 -0.200000003 -0.333999991 
-0.5 -0.200000003 -0.333000004 
-0.5 -0.200000003 -0.332000017 
-0.5 -0.200000003 -0.331 
-0.5 -0.200000003 -0.329999983 
-0.5 -0.200000003 -0.328999996 
-0.5 -0.200000003 -0.328000009 
-0.5 -0.200000003 -0.327000022 
-0.5 -0.200000003 -0.326000005 
-0.5 -0.200000003 -0.324999988 
-0.5 -0.200000003 -0.324000001 
-0.5 -0.200000003 -0.323000014 
-0.5 -0.200000003 -0.321999997 
-0.5 -0.200000003 -0.32099998 
-0.5 -0.200000003 -0.319999993 
-0.5 -0.200000003 -0.319000006 
-0.5 -0.200000003 -0.318000019 
-0.5 -0.200000003 -0.317000002 
-0.5 -0.200000003 -0.315999985 
-0.5 -0.200000003 -0.314999998 
-0.5 -0.200000003 -0.31400001 
-0.5 -0.200000003 -0.312999994 
-0.5 -0.200000003 -0.312000006 
-0.5 -0.200000003 -0.31099999 
-0.5 -0.200000003 -0.310000002 
-0.5 -0.200000003 -0.309000015 
-0.5 -0.200000003 -0.307999998 
-0.5 -0.200000003 -0.306999981 
-0.5 -0.200000003 -0.305999994 
-0.5 -0.200000003 -0.305000007 
-0.5 -0.200000003 -0.30400002 
-0.5 -0.200000003 -0.303000003 
-0.5 -0.200000003 -0.301999986 
-0.5 -0.200000003 -0.300999999 
-0.5 -0.200000003 -0.300000012 
-0.5 -0.200000003 -0.298999995 
-0.5 -0.200000003 -0.297999978 
-0.5 -0.200000003 -0.296999991 
-0.5 -0.200000003 -0.296000004 
-0.5 -0.200000003 -0.295000017 
-0.5 -0.200000003 -0.294 
-0.5 -0.200000003 -0.292999983 
-0.5 -0.200000003 -0.291999996 
-0.5 -0.200000003 -0.291000009 
-0.5 -0.200000003 -0.290000021 
-0.5 -0.200000003 -0.289000005 
-0.5 -0.200000003 -0.287999988 
-0.5 -0.200000003 -0.287 
-0.5 -0.200000003 -0.286000013 
-0.5 -0.200000003 -0.284999996 
-0.5 -0.200000003 -0.283999979 
-0.5 -0.200000003 -0.282999992 
-0.5 -0.200000003 -0.282000005 
-0.5 -0.200000003 -0.281000018 
-0.5 -0.200000003 -0.280000001 
-0.5 -0.200000003 -0.278999984 
-0.5 -0.200000003 -0.277999997 
-0.5 -0.200000003 -0.27700001 
-0.5 -0.200000003 -0.275999993 
-0.5 -0.200000003 -0.275000006 
-0.5 -0.200000003 -0.273999989 
-0.5 -0.200000003 -0.273000002 
-0.5 -0.200000003 -0.272000015 
-0.5 -0.200000003 -0.270999998 
-0.5 -0.200000003 -0.269999981 
-0.5 -0.200000003 -0.268999994 
-0.5 -0.200000003 -0.268000007 
-0.5 -0.200000003 -0.26700002 
-0.5 -0.200000003 -0.266000003 
-0.5 -0.200000003 -0.264999986 
-0.5 -0.200000003 -0.263999999 
-0.5 -0.200000003 -0.263000011 
-0.5 -0.200000003 -0.261999995 
-0.5 -0.200000003 -0.261000007 
-0.5 -0.200000003 -0.25999999 
-0.5 -0.200000003 -0.259000003 
-0.5 -0.200000003 -0.258000016 
-0.5 -0.200000003 -0.256999999 
-0.5 -0.200000003 -0.255999982 
-0.5 -0.200000003 -0.254999995 
-0.5 -0.200000003 -0.254000008 
-0.5 -0.200000003 -0.253000021 
-0.5 -0.200000003 -0.252000004 
-0.5 -0.200000003 -0.250999987 
-0.5 -0.200000003 -0.25 
-0.5 -0.200000003 -0.249000013 
-0.5 -0.200000003 -0.247999996 
-0.5 -0.200000003 -0.247000009 
-0.5 -0.200000003 -0.245999992 
-0.5 -0.200000003 -0.245000005 
-0.5 -0.200000003 -0.243999988 
-0.5 -0.200000003 -0.243000001 
-0.5 -0.200000003 -0.242000014 
-0.5 -0.200000003 -0.240999997 
-0.5 -0.200000003 -0.24000001 
-0.5 -0.200000003 -0.238999993 
-0.5 -0.200000003 -0.238000005 
-0.5 -0.200000003 -0.236999989 
-0.5 -0.200000003 -0.236000001 
-0.5 -0.200000003 -0.235000014 
-0.5 -0.200000003 -0.233999997 
-0.5 -0.200000003 -0.23300001 
-0.5 -0.200000003 -0.231999993 
-0.5 -0.200000003 -0.231000006 
-0.5 -0.200000003 -0.229999989 
-0.5 -0.200000003 -0.229000002 
-0.5 -0.200000003 -0.227999985 
-0.5 -0.200000003 -0.226999998 
-0.5 -0.200000003 -0.226000011 
-0.5 -0.200000003 -0.224999994 
-0.5 -0.200000003 -0.224000007 
-0.5 -0.200000003 -0.22299999 
-0.5 -0.200000003 -0.222000003 
-0.5 -0.200000003 -0.220999986 
-0.5 -0.200000003 -0.219999999 
-0.5 -0.200000003 -0.219000012 
-0.5 -0.200000003 -0.217999995 
-0.5 -0.200000003 -0.217000008 
-0.5 -0.200000003 -0.215999991 
-0.5 -0.200000003 -0.215000004 
-0.5 -0.200000003 -0.213999987 
-0.5 -0.200000003 -0.213 
-0.5 -0.200000003 -0.212000012 
-0.5 -0.200000003 -0.210999995 
-0.5 -0.200000003 -0.210000008 
-0.5 -0.200000003 -0.208999991 
-0.5 -0.200000003 -0.208000004 
-0.5 -0.200000003 -0.206999987 
-0.5 -0.200000003 -0.206 
-0.5 -0.200000003 -0.205000013 
-0.5 -0.200000003 -0.203999996 
-0.5 -0.200000003 -0.203000009 
-0.5 -0.200000003 -0.201999992 
-0.5 -0.200000003 -0.201000005 
-0.5 -0.200000003 -0.199999988 
-0.5 -0.200000003 -0.199000001 
-0.5 -0.200000003 -0.198000014 
-0.5 -0.200000003 -0.196999997 
-0.5 -0.200000003 -0.19600001 
-0.5 -0.200000003 -0.194999993 
-0.5 -0.200000003 -0.194000006 
-0.5 -0.200000003 -0.192999989 
-0.5 -0.200000003 -0.192000002 
-0.5 -0.200000003 -0.191000015 
-0.5 -0.200000003 -0.189999998 
-0.5 -0.200000003 -0.18900001 
-0.5 -0.200000003 -0.187999994 
-0.5 -0.200000003 -0.187000006 
-0.5 -0.200000003 -0.18599999 
-0.5 -0.200000003 -0.185000002 
-0.5 -0.200000003 -0.183999985 
-0.5 -0.200000003 -0.182999998 
-0.5 -0.200000003 -0.182000011 
-0.5 -0.200000003 -0.180999994 
-0.5 -0.200000003 -0.180000007 
-0.5 -0.200000003 -0.17899999 
-0.5 -0.200000003 -0.178000003 
-0.5 -0.200000003 -0.176999986 
-0.5 -0.200000003 -0.175999999 
-0.5 -0.200000003 -0.175000012 
-0.5 -0.200000003 -0.173999995 
-0.5 -0.200000003 -0.173000008 
-0.5 -0.200000003 -0.171999991 
-0.5 -0.200000003 -0.171000004 
-0.5 -0.200000003 -0.169999987 
-0.5 -0.200000003 -0.169 
-0.5 -0.200000003 -0.168000013 
-0.5 -0.200000003 -0.166999996 
-0.5 -0.200000003 -0.166000009 
-0.5 -0.200000003 -0.164999992 
-0.5 -0.200000003 -0.164000005 
-0.5 -0.200000003 -0.162999988 
-0.5 -0.200000003 -0.162 
-0.5 -0.200000003 -0.161000013 
-0.5 -0.200000003 -0.159999996 
-0.5 -0.200000003 -0.159000009 
-0.5 -0.200000003 -0.157999992 
-0.5 -0.200000003 -0.157000005 
-0.5 -0.200000003 -0.155999988 
-0.5 -0.200000003 -0.155000001 
-0.5 -0.200000003 -0.154000014 
-0.5 -0.200000003 -0.152999997 
-0.5 -0.200000003 -0.15200001 
-0.5 -0.200000003 -0.150999993 
-0.5 -0.200000003 -0.150000006 
-0.5 -0.200000003 -0.148999989 
-0.5 -0.200000003 -0.148000002 
-0.5 -0.200000003 -0.147000015 
-0.5 -0.200000003 -0.145999998 
-0.5 -0.200000003 -0.145000011 
-0.5 -0.200000003 -0.143999994 
-0.5 -0.200000003 -0.143000007 
-0.5 -0.200000003 -0.14199999 
-0.5 -0.200000003 -0.141000003 
-0.5 -0.200000003 -0.139999986 
-0.5 -0.200000003 -0.138999999 
-0.5 -0.200000003 -0.138000011 
-0.5 -0.200000003 -0.136999995 
-0.5 -0.200000003 -0.136000007 
-0.5 -0.200000003 -0.13499999 
-0.5 -0.200000003 -0.134000003 
-0.5 -0.200000003 -0.132999986 
-0.5 -0.200000003 -0.131999999 
-0.5 -0.200000003 -0.131000012 
-0.5 -0.200000003 -0.129999995 
-0.5 -0.200000003 -0.129000008 
-0.5 -0.200000003 -0.127999991 
-0.5 -0.200000003 -0.127000004 
-0.5 -0.200000003 -0.125999987 
-0.5 -0.200000003 -0.125 
-0.5 -0.200000003 -0.124000013 
-0.5 -0.200000003 -0.122999996 
-0.5 -0.200000003 -0.122000009 
-0.5 -0.200000003 -0.120999992 
-0.5 -0.200000003 -0.120000005 
-0.5 -0.200000003 -0.118999988 
-0.5 -0.200000003 -0.118000001 
-0.5 -0.200000003 -0.117000014 
-0.5 -0.200000003 -0.115999997 
-0.5 -0.200000003 -0.11500001 
-0.5 -0.200000003 -0.113999993 
-0.5 -0.200000003 -0.113000005 
-0.5 -0.200000003 -0.111999989 
-0.5 -0.200000003 -0.111000001 
-0.5 -0.200000003 -0.110000014 
-0.5 -0.200000003 -0.108999997 
-0.5 -0.200000003 -0.10800001 
-0.5 -0.200000003 -0.106999993 
-0.5 -0.200000003 -0.106000006 
-0.5 -0.200000003 -0.104999989 
-0.5 -0.200000003 -0.104000002 
-0.5 -0.200000003 -0.102999985 
-0.5 -0.200000003 -0.101999998 
-0.5 -0.200000003 -0.101000011 
-0.5 -0.200000003 -0.099999994 
-0.5 -0.200000003 -0.0990000069 
-0.5 -0.200000003 -0.09799999 
-0.5 -0.200000003 -0.0970000029 
-0.5 -0.200000003 -0.0959999859 
-0.5 -0.200000003 -0.0949999988 
-0.5 -0.200000003 -0.0940000117 
-0.5 -0.200000003 -0.0929999948 
-0.5 -0.200000003 -0.0920000076 
-0.5 -0.200000003 -0.0909999907 
-0.5 -0.200000003 -0.0900000036 
-0.5 -0.200000003 -0.0889999866 
-0.5 -0.200000003 -0.0879999995 
-0.5 -0.200000003 -0.0870000124 
-0.5 -0.200000003 -0.0859999955 
-0.5 -0.200000003 -0.0850000083 
-0.5 -0.200000003 -0.0839999914 
-0.5 -0.200000003 -0.0830000043 
-0.5 -0.200000003 -0.0819999874 
-0.5 -0.200000003 -0.0810000002 
-0.5 -0.200000003 -0.0800000131 
-0.5 -0.200000003 -0.0789999962 
-0.5 -0.200000003 -0.0780000091 
-0.5 -0.200000003 -0.0769999921 
-0.5 -0.200000003 -0.076000005 
-0.5 -0.200000003 -0.0749999881 
-0.5 -0.200000003 -0.074000001 
-0.5 -0.200000003 -0.0730000138 
-0.5 -0.200000003 -0.0719999969 
-0.5 -0.200000003 -0.0710000098 
-0.5 -0.200000003 -0.0699999928 
-0.5 -0.200000003 -0.0690000057 
-0.5 -0.200000003 -0.0679999888 
-0.5 -0.200000003 -0.0670000017 
-0.5 -0.200000003 -0.0660000145 
-0.5 -0.200000003 -0.0649999976 
-0.5 -0.200000003 -0.0640000105 
-0.5 -0.200000003 -0.0629999936 
-0.5 -0.200000003 -0.0620000064 
-0.5 -0.200000003 -0.0609999895 
-0.5 -0.200000003 -0.0600000024 
-0.5 -0.200000003 -0.0589999855 
-0.5 -0.200000003 -0.0579999983 
-0.5 -0.200000003 -0.0570000112 
-0.5 -0.200000003 -0.0559999943 
-0.5 -0.200000003 -0.0550000072 
-0.5 -0.200000003 -0.0539999902 
-0.5 -0.200000003 -0.0530000031 
-0.5 -0.200000003 -0.0519999862 
-0.5 -0.200000003 -0.050999999 
-0.5 -0.200000003 -0.0500000119 
-0.5 -0.200000003 -0.048999995 
-0.5 -0.200000003 -0.0480000079 
-0.5 -0.200000003 -0.0469999909 
-0.5 -0.200000003 -0.0460000038 
-0.5 -0.200000003 -0.0449999869 
-0.5 -0.200000003 -0.0439999998 
-0.5 -0.200000003 -0.0430000126 
-0.5 -0.200000003 -0.0419999957 
-0.5 -0.200000003 -0.0410000086 
-0.5 -0.200000003 -0.0399999917 
-0.5 -0.200000003 -0.0390000045 
-0.5 -0.200000003 -0.0379999876 
-0.5 -0.200000003 -0.0370000005 
-0.5 -0.200000003 -0.0360000134 
-0.5 -0.200000003 -0.0349999964 
-0.5 -0.200000003 -0.0340000093 
-0.5 -0.200000003 -0.0329999924 
-0.5 -0.200000003 -0.0320000052 
-0.5 -0.200000003 -0.0309999883 
-0.5 -0.200000003 -0.0300000012 
-0.5 -0.200000003 -0.0290000141 
-0.5 -0.200000003 -0.0279999971 
-0.5 -0.200000003 -0.02700001 
-0.5 -0.200000003 -0.0259999931 
-0.5 -0.200000003 -0.025000006 
-0.5 -0.200000003 -0.023999989 
-0.5 -0.200000003 -0.0230000019 
-0.5 -0.200000003 -0.0220000148 
-0.5 -0.200000003 -0.0209999979 
-0.5 -0.200000003 -0.0200000107 
-0.5 -0.200000003 -0.0189999938 
-0.5 -0.200000003 -0.0180000067 
-0.5 -0.200000003 -0.0169999897 
-0.5 -0.200000003 -0.0160000026 
-0.5 -0.200000003 -0.0149999857 
-0.5 -0.200000003 -0.0139999986 
-0.5 -0.200000003 -0.0130000114 
-0.5 -0.200000003 -0.0119999945 
-0.5 -0.200000003 -0.0110000074 
-0.5 -0.200000003 -0.00999999046 
-0.5 -0.200000003 -0.00900000334 
-0.5 -0.200000003 -0.00799998641 
-0.5 -0.200000003 -0.00699999928 
-0.5 -0.200000003 -0.00600001216 
-0.5 -0.200000003 -0.00499999523 
-0.5 -0.200000003 -0.00400000811 
-0.5 -0.200000003 -0.00299999118 
-0.5 -0.200000003 -0.00200000405 
-0.5 -0.200000003 -0.000999987125 
-0.5 -0.200000003 0 
-0.5 -0.200000003 0.000999987125 
-0.5 -0.200000003 0.00199997425 
-0.5 -0.200000003 0.00300002098 
-0.5 -0.200000003 0.00400000811 
-0.5 -0.200000003 0.00499999523 
-0.5 -0.200000003 0.00599998236 
-0.5 -0.200000003 0.00700002909 
-0.5 -0.200000003 0.00800001621 
-0.5 -0.200000003 0.00900000334 
-0.5 -0.200000003 0.00999999046 
-0.5 -0.200000003 0.0109999776 
-0.5 -0.200000003 0.0120000243 
-0.5 -0.200000003 0.0130000114 
-0.5 -0.200000003 0.0139999986 
-0.5 -0.200000003 0.0149999857 
-0.5 -0.200000003 0.0159999728 
-0.5 -0.200000003 0.0170000196 
-0.5 -0.200000003 0.0180000067 
-0.5 -0.200000003 0.0189999938 
-0.5 -0.200000003 0.0199999809 
-0.5 -0.200000003 0.0210000277 
-0.5 -0.200000003 0.0220000148 
-0.5 -0.200000003 0.0230000019 
-0.5 -0.200000003 0.023999989 
-0.5 -0.200000003 0.0249999762 
-0.5 -0.200000003 0.0260000229 
-0.5 -0.200000003 0.02700001 
-0.5 -0.200000003 0.0279999971 
-0.5 -0.200000003 0.0289999843 
-0.5 -0.200000003 0.0299999714 
-0.5 -0.200000003 0.0310000181 
-0.5 -0.200000003 0.0320000052 
-0.5 -0.200000003 0.0329999924 
-0.5 -0.200000003 0.0339999795 
-0.5 -0.200000003 0.0350000262 
-0.5 -0.200000003 0.0360000134 
-0.5 -0.200000003 0.0370000005 
-0.5 -0.200000003 0.0379999876 
-0.5 -0.200000003 0.0389999747 
-0.5 -0.200000003 0.0400000215 
-0.5 -0.200000003 0.0410000086 
-0.5 -0.200000003 0.0419999957 
-0.5 -0.200000003 0.0429999828 
-0.5 -0.200000003 0.0440000296 
-0.5 -0.200000003 0.0450000167 
-0.5 -0.200000003 0.0460000038 
-0.5 -0.200000003 0.0469999909 
-0.5 -0.200000003 0.0479999781 
-0.5 -0.200000003 0.0490000248 
-0.5 -0.200000003 0.0500000119 
-0.5 -0.200000003 0.050999999 
-0.5 -0.200000003 0.0519999862 
-0.5 -0.200000003 0.0529999733 
-0.5 -0.200000003 0.05400002 
-0.5 -0.200000003 0.0550000072 
-0.5 -0.200000003 0.0559999943 
-0.5 -0.200000003 0.0569999814 
-0.5 -0.200000003 0.0580000281 
-0.5 -0.200000003 0.0590000153 
-0.5 -0.200000003 0.0600000024 
-0.5 -0.200000003 0.0609999895 
-0.5 -0.200000003 0.0619999766 
-0.5 -0.200000003 0.0630000234 
-0.5 -0.200000003 0.0640000105 
-0.5 -0.200000003 0.0649999976 
-0.5 -0.200000003 0.0659999847 
-0.5 -0.200000003 0.0669999719 
-0.5 -0.200000003 0.0680000186 
-0.5 -0.200000003 0.0690000057 
-0.5 -0.200000003 0.0699999928 
-0.5 -0.200000003 0.07099998 
-0.5 -0.200000003 0.0720000267 
-0.5 -0.200000003 0.0730000138 
-0.5 -0.200000003 0.074000001 
-0.5 -0.200000003 0.0749999881 
-0.5 -0.200000003 0.0759999752 
-0.5 -0.200000003 0.0770000219 
-0.5 -0.200000003 0.0780000091 
-0.5 -0.200000003 0.0789999962 
-0.5 -0.200000003 0.0799999833 
-0.5 -0.200000003 0.0809999704 
-0.5 -0.200000003 0.0820000172 
-0.5 -0.200000003 0.0830000043 
-0.5 -0.200000003 0.0839999914 
-0.5 -0.200000003 0.0849999785 
-0.5 -0.200000003 0.0860000253 
-0.5 -0.200000003 0.0870000124 
-0.5 -0.200000003 0.0879999995 
-0.5 -0.200000003 0.0889999866 
-0.5 -0.200000003 0.0899999738 
-0.5 -0.200000003 0.0910000205 
-0.5 -0.200000003 0.0920000076 
-0.5 -0.200000003 0.0929999948 
-0.5 -0.200000003 0.0939999819 
-0.5 -0.200000003 0.0950000286 
-0.5 -0.200000003 0.0960000157 
-0.5 -0.200000003 0.0970000029 
-0.5 -0.200000003 0.09799999 
-0.5 -0.200000003 0.0989999771 
-0.5 -0.200000003 0.100000024 
-0.5 -0.200000003 0.101000011 
-0.5 -0.200000003 0.101999998 
-0.5 -0.200000003 0.102999985 
-0.5 -0.200000003 0.103999972 
-0.5 -0.200000003 0.105000019 
-0.5 -0.200000003 0.106000006 
-0.5 -0.200000003 0.106999993 
-0.5 -0.200000003 0.10799998 
-0.5 -0.200000003 0.109000027 
-0.5 -0.200000003 0.110000014 
-0.5 -0.200000003 0.111000001 
-0.5 -0.200000003 0.111999989 
-0.5 -0.200000003 0.112999976 
-0.5 -0.200000003 0.114000022 
-0.5 -0.200000003 0.11500001 
-0.5 -0.200000003 0.115999997 
-0.5 -0.200000003 0.116999984 
-0.5 -0.200000003 0.117999971 
-0.5 -0.200000003 0.119000018 
-0.5 -0.200000003 0.120000005 
-0.5 -0.200000003 0.120999992 
-0.5 -0.200000003 0.121999979 
-0.5 -0.200000003 0.123000026 
-0.5 -0.200000003 0.124000013 
-0.5 -0.200000003 0.125 
-0.5 -0.200000003 0.125999987 
-0.5 -0.200000003 0.126999974 
-0.5 -0.200000003 0.128000021 
-0.5 -0.200000003 0.129000008 
-0.5 -0.200000003 0.129999995 
-0.5 -0.200000003 0.130999982 
-0.5 -0.200000003 0.132000029 
-0.5 -0.200000003 0.133000016 
-0.5 -0.200000003 0.134000003 
-0.5 -0.200000003 0.13499999 
-0.5 -0.200000003 0.135999978 
-0.5 -0.200000003 0.137000024 
-0.5 -0.200000003 0.138000011 
-0.5 -0.200000003 0.138999999 
-0.5 -0.200000003 0.139999986 
-0.5 -0.200000003 0.140999973 
-0.5 -0.200000003 0.14200002 
-0.5 -0.200000003 0.143000007 
-0.5 -0.200000003 0.143999994 
-0.5 -0.200000003 0.144999981 
-0.5 -0.200000003 0.146000028 
-0.5 -0.200000003 0.147000015 
-0.5 -0.200000003 0.148000002 
-0.5 -0.200000003 0.148999989 
-0.5 -0.200000003 0.149999976 
-0.5 -0.200000003 0.151000023 
-0.5 -0.200000003 0.15200001 
-0.5 -0.200000003 0.152999997 
-0.5 -0.200000003 0.153999984 
-0.5 -0.200000003 0.154999971 
-0.5 -0.200000003 0.156000018 
-0.5 -0.200000003 0.157000005 
-0.5 -0.200000003 0.157999992 
-0.5 -0.200000003 0.158999979 
-0.5 -0.200000003 0.160000026 
-0.5 -0.200000003 0.161000013 
-0.5 -0.200000003 0.162 
-0.5 -0.200000003 0.162999988 
-0.5 -0.200000003 0.163999975 
-0.5 -0.200000003 0.165000021 
-0.5 -0.200000003 0.166000009 
-0.5 -0.200000003 0.166999996 
-0.5 -0.200000003 0.167999983 
-0.5 -0.200000003 0.16900003 
-0.5 -0.200000003 0.170000017 
-0.5 -0.200000003 0.171000004 
-0.5 -0.200000003 0.171999991 
-0.5 -0.200000003 0.172999978 
-0.5 -0.200000003 0.174000025 
-0.5 -0.200000003 0.175000012 
-0.5 -0.200000003 0.175999999 
-0.5 -0.200000003 0.176999986 
-0.5 -0.200000003 0.177999973 
-0.5 -0.200000003 0.17900002 
-0.5 -0.200000003 0.180000007 
-0.5 -0.200000003 0.180999994 
-0.5 -0.200000003 0.181999981 
-0.5 -0.200000003 0.183000028 
-0.5 -0.200000003 0.184000015 
-0.5 -0.200000003 0.185000002 
-0.5 -0.200000003 0.18599999 
-0.5 -0.200000003 0.186999977 
-0.5 -0.200000003 0.188000023 
-0.5 -0.200000003 0.18900001 
-0.5 -0.200000003 0.189999998 
-0.5 -0.200000003 0.190999985 
-0.5 -0.200000003 0.191999972 
-0.5 -0.200000003 0.193000019 
-0.5 -0.200000003 0.194000006 
-0.5 -0.200000003 0.194999993 
-0.5 -0.200000003 0.19599998 
-0.5 -0.200000003 0.197000027 
-0.5 -0.200000003 0.198000014 
-0.5 -0.200000003 0.199000001 
-0.5 -0.200000003 0.199999988 
-0.5 -0.200000003 0.200999975 
-0.5 -0.200000003 0.202000022 
-0.5 -0.200000003 0.203000009 
-0.5 -0.200000003 0.203999996 
-0.5 -0.200000003 0.204999983 
-0.5 -0.200000003 0.20599997 
-0.5 -0.200000003 0.207000017 
-0.5 -0.200000003 0.208000004 
-0.5 -0.200000003 0.208999991 
-0.5 -0.200000003 0.209999979 
-0.5 -0.200000003 0.211000025 
-0.5 -0.200000003 0.212000012 
-0.5 -0.200000003 0.213 
-0.5 -0.200000003 0.213999987 
-0.5 -0.200000003 0.214999974 
-0.5 -0.200000003 0.216000021 
-0.5 -0.200000003 0.217000008 
-0.5 -0.200000003 0.217999995 
-0.5 -0.200000003 0.218999982 
-0.5 -0.200000003 0.220000029 
-0.5 -0.200000003 0.221000016 
-0.5 -0.200000003 0.222000003 
-0.5 -0.200000003 0.22299999 
-0.5 -0.200000003 0.223999977 
-0.5 -0.200000003 0.225000024 
-0.5 -0.200000003 0.226000011 
-0.5 -0.200000003 0.226999998 
-0.5 -0.200000003 0.227999985 
-0.5 -0.200000003 0.228999972 
-0.5 -0.200000003 0.230000019 
-0.5 -0.200000003 0.231000006 
-0.5 -0.200000003 0.231999993 
-0.5 -0.200000003 0.23299998 
-0.5 -0.200000003 0.234000027 
-0.5 -0.200000003 0.235000014 
-0.5 -0.200000003 0.236000001 
-0.5 -0.200000003 0.236999989 
-0.5 -0.200000003 0.237999976 
-0.5 -0.200000003 0.239000022 
-0.5 -0.200000003 0.24000001 
-0.5 -0.200000003 0.240999997 
-0.5 -0.200000003 0.241999984 
-0.5 -0.200000003 0.242999971 
-0.5 -0.200000003 0.244000018 
-0.5 -0.200000003 0.245000005 
-0.5 -0.200000003 0.245999992 
-0.5 -0.200000003 0.246999979 
-0.5 -0.200000003 0.248000026 
-0.5 -0.200000003 0.249000013 
-0.5 -0.200000003 0.25 
-0.5 -0.200000003 0.250999987 
-0.5 -0.200000003 0.251999974 
-0.5 -0.200000003 0.253000021 
-0.5 -0.200000003 0.254000008 
-0.5 -0.200000003 0.254999995 
-0.5 -0.200000003 0.255999982 
-0.5 -0.200000003 0.257000029 
-0.5 -0.200000003 0.258000016 
-0.5 -0.200000003 0.259000003 
-0.5 -0.200000003 0.25999999 
-0.5 -0.200000003 0.260999978 
-0.5 -0.200000003 0.262000024 
-0.5 -0.200000003 0.263000011 
-0.5 -0.200000003 0.263999999 
-0.5 -0.200000003 0.264999986 
-0.5 -0.200000003 0.265999973 
-0.5 -0.200000003 0.26700002 
-0.5 -0.200000003 0.268000007 
-0.5 -0.200000003 0.268999994 
-0.5 -0.200000003 0.269999981 
-0.5 -0.200000003 0.271000028 
-0.5 -0.200000003 0.272000015 
-0.5 -0.200000003 0.273000002 
-0.5 -0.200000003 0.273999989 
-0.5 -0.200000003 0.274999976 
-0.5 -0.200000003 0.276000023 
-0.5 -0.200000003 0.27700001 
-0.5 -0.200000003 0.277999997 
-0.5 -0.200000003 0.278999984 
-0.5 -0.200000003 0.279999971 
-0.5 -0.200000003 0.281000018 
-0.5 -0.200000003 0.282000005 
-0.5 -0.200000003 0.282999992 
-0.5 -0.200000003 0.283999979 
-0.5 -0.200000003 0.285000026 
-0.5 -0.200000003 0.286000013 
-0.5 -0.200000003 0.287 
-0.5 -0.200000003 0.287999988 
-0.5 -0.200000003 0.288999975 
-0.5 -0.200000003 0.290000021 
-0.5 -0.200000003 0.291000009 
-0.5 -0.200000003 0.291999996 
-0.5 -0.200000003 0.292999983 
-0.5 -0.200000003 0.29400003 
-0.5 -0.200000003 0.295000017 
-0.5 -0.200000003 0.296000004 
-0.5 -0.200000003 0.296999991 
-0.5 -0.200000003 0.297999978 
-0.5 -0.200000003 0.299000025 
-0.5 -0.200000003 0.300000012 
-0.5 -0.200000003 0.300999999 
-0.5 -0.200000003 0.301999986 
-0.5 -0.200000003 0.302999973 
-0.5 -0.200000003 0.30400002 
-0.5 -0.200000003 0.305000007 
-0.5 -0.200000003 0.305999994 
-0.5 -0.200000003 0.306999981 
-0.5 -0.200000003 0.308000028 
-0.5 -0.200000003 0.309000015 
-0.5 -0.200000003 0.310000002 
-0.5 -0.200000003 0.31099999 
-0.5 -0.200000003 0.311999977 
-0.5 -0.200000003 0.313000023 
-0.5 -0.200000003 0.31400001 
-0.5 -0.200000003 0.314999998 
-0.5 -0.200000003 0.315999985 
-0.5 -0.200000003 0.316999972 
-0.5 -0.200000003 0.318000019 
-0.5 -0.200000003 0.319000006 
-0.5 -0.200000003 0.319999993 
-0.5 -0.200000003 0.32099998 
-0.5 -0.200000003 0.322000027 
-0.5 -0.200000003 0.323000014 
-0.5 -0.200000003 0.324000001 
-0.5 -0.200000003 0.324999988 
-0.5 -0.200000003 0.325999975 
-0.5 -0.200000003 0.327000022 
-0.5 -0.200000003 0.328000009 
-0.5 -0.200000003 0.328999996 
-0.5 -0.200000003 0.329999983 
-0.5 -0.200000003 0.33099997 
-0.5 -0.200000003 0.332000017 
-0.5 -0.200000003 0.333000004 
-0.5 -0.200000003 0.333999991 
-0.5 -0.200000003 0.334999979 
-0.5 -0.200000003 0.336000025 
-0.5 -0.200000003 0.337000012 
-0.5 -0.200000003 0.338 
-0.5 -0.200000003 0.338999987 
-0.5 -0.200000003 0.339999974 
-0.5 -0.200000003 0.341000021 
-0.5 -0.200000003 0.342000008 
-0.5 -0.200000003 0.342999995 
-0.5 -0.200000003 0.343999982 
-0.5 -0.200000003 0.345000029 
-0.5 -0.200000003 0.346000016 
-0.5 -0.200000003 0.347000003 
-0.5 -0.200000003 0.34799999 
-0.5 -0.200000003 0.348999977 
-0.5 -0.200000003 0.350000024 
-0.5 -0.200000003 0.351000011 
-0.5 -0.200000003 0.351999998 
-0.5 -0.200000003 0.352999985 
-0.5 -0.200000003 0.353999972 
-0.5 -0.200000003 0.355000019 
-0.5 -0.200000003 0.356000006 
-0.5 -0.200000003 0.356999993 
-0.5 -0.200000003 0.35799998 
-0.5 -0.200000003 0.359000027 
-0.5 -0.200000003 0.360000014 
-0.5 -0.200000003 0.361000001 
-0.5 -0.200000003 0.361999989 
-0.5 -0.200000003 0.362999976 
-0.5 -0.200000003 0.364000022 
-0.5 -0.200000003 0.36500001 
-0.5 -0.200000003 0.365999997 
-0.5 -0.200000003 0.366999984 
-0.5 -0.200000003 0.367999971 
-0.5 -0.200000003 0.369000018 
-0.5 -0.200000003 0.370000005 
-0.5 -0.200000003 0.370999992 
-0.5 -0.200000003 0.371999979 
-0.5 -0.200000003 0.373000026 
-0.5 -0.200000003 0.374000013 
-0.5 -0.200000003 0.375 
-0.5 -0.200000003 0.375999987 
-0.5 -0.200000003 0.376999974 
-0.5 -0.200000003 0.378000021 
-0.5 -0.200000003 0.379000008 
-0.5 -0.200000003 0.379999995 
-0.5 -0.200000003 0.380999982 
-0.5 -0.200000003 0.382000029 
-0.5 -0.200000003 0.383000016 
-0.5 -0.200000003 0.384000003 
-0.5 -0.200000003 0.38499999 
-0.5 -0.200000003 0.385999978 
-0.5 -0.200000003 0.387000024 
-0.5 -0.200000003 0.388000011 
-0.5 -0.200000003 0.388999999 
-0.5 -0.200000003 0.389999986 
-0.5 -0.200000003 0.390999973 
-0.5 -0.200000003 0.39200002 
-0.5 -0.200000003 0.393000007 
-0.5 -0.200000003 0.393999994 
-0.5 -0.200000003 0.394999981 
-0.5 -0.200000003 0.396000028 
-0.5 -0.200000003 0.397000015 
-0.5 -0.200000003 0.398000002 
-0.5 -0.200000003 0.398999989 
-0.5 -0.200000003 0.399999976 
-0.5 -0.200000003 0.401000023 
-0.5 -0.200000003 0.40200001 
-0.5 -0.200000003 0.402999997 
-0.5 -0.200000003 0.403999984 
-0.5 -0.200000003 0.404999971 
-0.5 -0.200000003 0.406000018 
-0.5 -0.200000003 0.407000005 
-0.5 -0.200000003 0.407999992 
-0.5 -0.200000003 0.408999979 
-0.5 -0.200000003 0.410000026 
-0.5 -0.200000003 0.411000013 
-0.5 -0.200000003 0.412 
-0.5 -0.200000003 0.412999988 
-0.5 -0.200000003 0.413999975 
-0.5 -0.200000003 0.415000021 
-0.5 -0.200000003 0.416000009 
-0.5 -0.200000003 0.416999996 
-0.5 -0.200000003 0.417999983 
-0.5 -0.200000003 0.41900003 
-0.5 -0.200000003 0.420000017 
-0.5 -0.200000003 0.421000004 
-0.5 -0.200000003 0.421999991 
